NCOLS 216
NROWS 105
XLLCORNER 8
YLLCORNER 3.41666666667
CELLSIZE 0.0416666666666667 
NODATA_value -9999 
109 95 101 86 94 88 75 70 70 69 71 76 84 121 95 94 78 72 72 82 85 83 79 100 133 145 152 145 156 181 250 226 174 150 138 140 147 167 185 169 141 155 159 180 196 180 172 154 121 132 229 224 197 190 190 176 171 155 159 170 184 193 217 227 480 904 541 514 462 232 229 284 244 244 365 536 484 401 362 371 586 462 302 273 283 368 375 392 396 342 416 483 553 664 815 734 632 792 739 631 549 486 494 535 581 891 1322 1041 685 749 878 847 978 1339 1660 1648 1206 990 931 792 629 556 580 693 672 672 576 556 614 704 922 838 627 557 579 572 539 532 560 725 747 932 1124 1079 1157 1284 1288 1262 1266 1263 1242 1227 1031 783 722 710 657 654 649 622 614 624 693 651 559 524 521 518 515 513 520 540 532 560 523 526 510 501 489 485 478 477 473 471 458 478 502 481 507 560 673 588 547 528 504 492 490 476 466 468 455 440 435 429 446 441 435 446 467 486 507 505 470 486 466 446
107 117 114 100 111 93 93 86 82 93 73 73 90 79 75 74 84 98 99 101 126 122 103 95 129 151 184 163 193 181 240 210 180 158 148 159 144 169 196 178 148 161 172 191 177 164 150 136 126 153 201 186 180 186 191 190 174 161 171 175 186 213 523 351 316 781 699 787 721 284 293 246 229 270 346 747 597 534 381 399 606 695 466 296 334 328 431 470 560 397 367 427 383 419 438 500 562 638 587 611 543 493 496 518 592 802 985 859 682 726 841 1093 1288 1553 1437 1304 1055 961 912 890 850 695 568 739 730 703 598 634 824 907 894 721 605 587 628 655 608 576 608 647 694 886 1253 1292 1265 1202 1082 1041 1192 1192 1171 964 858 732 683 671 722 771 678 685 655 633 657 601 568 551 536 559 562 542 514 520 504 511 509 499 501 511 518 513 493 481 474 546 528 517 522 501 549 612 601 556 533 514 503 515 494 489 489 476 458 439 442 445 458 444 445 451 454 477 505 486 484 489 468 453
129 135 110 113 101 107 103 93 87 105 88 90 93 125 114 99 92 113 134 123 149 134 108 89 116 169 181 147 162 154 178 196 169 156 171 167 144 171 196 186 155 173 187 197 174 166 165 161 137 131 146 159 160 170 181 184 167 175 187 195 264 275 535 462 450 604 728 820 879 733 542 300 233 245 583 900 629 749 517 481 428 468 467 334 383 427 489 961 910 459 345 355 385 425 530 711 688 616 585 548 517 542 504 534 540 596 619 629 682 777 838 799 1150 1446 1166 1021 956 918 871 832 883 798 641 771 800 748 614 653 821 960 801 673 659 694 817 866 735 836 891 945 918 995 1277 1294 1264 1222 1055 872 896 913 888 865 789 734 768 799 794 793 714 676 616 594 594 620 655 573 573 592 565 539 531 613 745 626 570 550 571 574 553 513 513 506 507 545 537 524 519 590 728 754 579 567 558 527 533 525 504 500 484 471 457 436 440 464 469 449 451 465 476 480 467 463 457 452 445 441
124 116 114 120 105 129 109 91 90 111 109 92 105 135 146 133 109 105 138 150 162 136 119 91 113 152 171 133 151 139 130 160 162 137 159 170 163 161 171 186 168 183 202 202 196 204 192 178 147 138 133 138 150 162 178 258 184 189 257 423 309 564 442 513 524 565 585 617 722 863 821 405 252 268 447 609 619 549 462 532 539 513 392 302 486 437 605 900 902 568 360 377 500 558 478 864 946 735 606 571 661 808 589 518 556 559 596 733 741 802 714 821 1284 1264 1210 1056 963 896 850 783 781 821 804 823 737 698 684 771 903 991 1027 894 866 1016 1149 1294 1278 1316 1290 1132 1024 1116 1227 1174 1080 974 980 885 831 837 842 788 787 785 787 783 775 733 662 623 604 606 627 610 635 587 596 584 574 561 585 660 834 759 631 615 608 583 541 537 533 523 563 630 559 565 553 626 668 675 662 633 588 560 564 514 500 480 465 455 454 447 450 469 475 461 460 477 490 479 466 455 442 444 429 424
131 144 138 120 121 137 106 99 100 102 112 98 112 134 159 146 115 105 125 148 176 163 129 97 117 139 132 116 133 110 111 121 124 136 151 165 185 187 186 203 195 185 204 223 199 193 175 156 145 148 153 153 141 164 184 242 298 177 198 343 287 590 349 401 528 530 560 608 648 683 515 457 310 598 726 496 466 732 593 650 649 510 334 421 418 364 540 522 690 805 440 510 464 560 613 959 1136 763 615 670 1051 1160 715 557 533 554 620 672 675 677 693 1073 1322 1110 1069 1036 1008 975 949 894 814 748 740 723 713 661 755 821 950 1039 1090 1212 1117 1227 1228 1268 1333 1258 1211 1178 1053 922 923 922 905 870 871 822 804 793 796 785 778 785 751 755 727 674 650 636 627 633 642 672 637 621 671 681 621 581 705 602 746 818 755 688 630 590 570 552 543 516 544 564 581 613 582 603 732 851 769 643 584 557 525 499 482 469 474 475 463 451 444 458 470 482 482 487 480 478 462 451 450 429 432 438
155 168 136 124 139 125 108 123 107 100 118 112 121 159 182 145 128 108 126 139 165 170 141 118 96 95 98 93 96 118 139 140 155 148 143 164 192 205 207 222 221 219 229 218 204 189 174 153 176 160 176 173 145 167 183 193 250 190 187 221 223 446 295 503 615 597 604 643 640 653 598 519 427 816 903 588 765 567 638 994 695 328 402 583 449 458 422 539 632 666 585 874 999 1026 906 1073 1131 674 606 668 810 1263 875 699 580 547 573 591 636 654 869 1120 1461 1320 1175 1092 1005 995 967 910 864 869 881 857 749 727 783 861 984 1039 1119 1217 1287 1348 1312 1139 1122 1101 1118 1129 1085 983 875 833 820 817 805 818 841 825 829 828 836 819 776 741 731 689 668 656 686 658 681 712 704 715 764 740 669 609 817 646 725 751 696 655 621 591 579 570 534 531 576 589 653 612 640 780 817 720 738 666 592 546 524 497 479 493 484 466 473 452 464 468 475 496 496 497 480 460 455 447 436 431 437 448
169 157 143 135 155 150 130 116 100 112 128 119 137 189 188 163 143 118 113 138 160 188 161 191 141 118 140 123 95 110 121 140 178 175 172 168 182 213 214 209 205 203 211 200 187 181 165 169 189 167 192 168 151 166 181 226 230 196 195 193 238 238 345 536 765 805 729 667 683 724 855 747 511 861 719 628 717 576 653 534 356 337 329 469 628 1004 839 862 1188 977 765 778 865 1081 1155 1087 1028 657 614 638 810 1328 1100 738 593 576 654 700 647 676 807 881 1255 1394 1272 1185 1056 1000 976 930 935 912 891 833 852 906 977 1015 1092 1075 1102 1165 1190 1228 1168 1107 1080 1067 1069 1084 1050 964 880 889 848 832 842 868 912 858 858 861 944 945 826 795 724 707 742 756 786 677 697 774 768 758 809 769 706 692 846 810 863 873 781 686 634 596 567 542 540 564 615 646 616 581 652 738 700 768 748 646 590 585 530 493 508 505 485 489 480 454 466 479 486 496 479 489 477 457 444 443 442 455 451 449
168 154 157 166 170 162 142 118 102 122 143 141 154 194 217 186 156 136 114 140 171 199 170 182 133 156 172 147 111 120 128 142 168 200 203 203 208 205 203 190 185 189 212 209 188 168 178 195 207 182 190 169 155 174 192 219 239 208 205 207 202 332 628 586 901 989 845 668 676 759 831 740 605 979 800 849 630 668 696 382 335 337 315 364 432 666 777 935 1168 1076 896 1043 1150 1336 1420 1046 675 630 661 685 783 1265 1040 687 620 607 637 759 826 733 726 755 978 1292 1136 1032 985 974 972 949 955 943 910 868 936 983 999 1024 1048 1054 1096 1135 1129 1139 1118 1081 1052 1048 1045 1045 1056 1018 1011 947 889 873 881 877 913 911 946 991 940 852 805 750 720 797 777 730 703 714 752 802 818 823 796 779 713 715 832 911 956 987 829 684 633 594 560 557 588 621 649 613 599 613 677 912 923 881 811 714 669 587 522 502 531 514 491 487 473 462 479 478 494 503 489 464 462 459 464 443 451 466 455 458
180 193 170 177 165 150 129 115 110 112 130 143 163 202 200 179 146 126 118 143 163 182 189 150 147 191 195 174 118 116 135 145 162 167 179 196 190 197 183 175 172 189 212 213 191 184 191 228 207 192 203 185 175 165 170 197 224 226 217 219 231 302 871 719 968 959 908 717 698 743 822 824 811 923 868 829 414 374 363 367 412 388 356 370 445 842 1204 1329 1520 1379 1041 933 1098 1371 1389 830 733 720 725 847 1011 1442 1110 926 687 611 619 690 994 1014 872 876 1183 1253 1171 1090 1079 983 954 950 962 955 941 918 926 927 946 957 963 1002 1106 1091 1100 1095 1092 1065 1061 1053 1071 1087 1075 1081 1037 981 976 979 1001 994 967 921 964 996 816 778 792 758 769 772 753 759 745 777 812 890 859 813 799 752 741 720 806 837 940 1025 909 678 634 593 563 621 659 648 631 666 730 699 807 926 965 963 849 773 691 578 536 511 544 514 484 471 469 475 494 487 516 496 477 486 473 480 473 462 444 465 463 472
213 209 180 170 154 146 137 122 114 123 127 139 161 193 178 165 140 123 126 154 156 163 176 170 184 189 166 146 110 110 112 130 142 158 160 168 169 179 168 163 187 192 219 208 200 197 200 233 213 201 216 194 198 179 177 189 216 313 239 237 246 249 632 745 920 923 907 733 733 736 817 833 861 880 940 597 419 380 375 436 429 368 390 426 494 655 1034 1421 1510 1490 1224 1046 1119 1325 1394 1069 911 754 731 799 1076 1437 1386 969 827 667 636 688 1054 1148 1194 1141 1246 1224 1170 1161 1072 998 972 957 938 935 930 938 955 956 934 959 1050 1044 1094 1102 1092 1088 1094 1099 1080 1085 1113 1093 1097 1120 1160 1218 1254 1207 1249 1196 1057 928 884 828 846 1197 1261 1013 1073 918 833 803 800 847 905 890 854 836 798 799 795 738 763 813 875 1048 846 661 616 575 618 680 684 689 765 869 963 1002 962 970 998 897 827 792 712 596 574 543 577 507 489 488 484 499 506 502 523 524 502 499 490 490 476 450 457 452 471 475
191 181 168 167 161 158 153 129 130 136 142 161 184 183 157 139 135 133 141 151 155 189 215 221 219 219 173 131 132 129 122 112 124 144 146 150 157 154 156 179 193 203 209 219 219 208 229 275 222 226 231 213 198 172 245 393 264 540 234 228 241 251 356 582 693 704 705 749 744 770 806 832 911 950 1034 523 435 398 394 420 388 426 455 408 410 643 1227 1625 1703 1725 1355 1020 1157 1217 1485 1457 972 803 772 823 1156 1290 1480 1524 1467 1113 939 904 1016 1093 1110 1109 1127 1154 1136 1252 1076 1011 995 967 934 944 962 945 943 961 970 980 1075 1085 1126 1119 1121 1099 1110 1111 1111 1107 1150 1122 1141 1216 1287 1524 1557 1485 1399 1363 1240 1093 1110 1199 1146 1460 1498 1474 1269 1012 851 845 899 962 929 896 869 877 842 848 791 757 778 828 867 799 645 610 591 630 718 774 740 754 701 784 972 1056 1035 1027 897 842 814 782 729 681 658 588 600 539 520 511 493 531 537 551 551 554 529 524 511 508 479 459 478 467 471 475
196 185 158 143 142 134 121 138 139 157 165 182 173 168 139 121 129 156 156 158 167 180 189 205 200 201 155 139 162 160 166 120 113 128 129 139 143 161 159 175 179 185 197 214 239 234 229 283 247 247 245 220 190 192 228 353 262 267 222 237 246 247 278 401 427 627 741 797 762 863 813 890 971 1122 700 495 432 406 390 372 391 429 420 441 719 495 730 1039 1274 1453 1221 1186 1254 1136 1181 1330 1287 1009 881 996 1356 1982 1887 1744 1763 1351 1120 1113 1092 1082 1075 1079 1088 1088 1097 1263 1133 977 968 948 955 981 977 949 952 987 1080 1063 1076 1128 1132 1116 1124 1130 1135 1133 1090 1101 1157 1199 1204 1231 1282 1319 1431 1420 1421 1375 1346 1280 1306 1444 1480 1500 1542 1493 1544 1530 1087 1016 1119 986 917 893 896 917 888 869 813 782 785 842 768 675 621 638 675 729 852 858 813 758 779 923 1035 975 984 893 851 828 833 823 772 710 660 601 646 633 528 555 535 534 582 605 584 558 546 517 510 495 478 475 490 494 499 480
154 179 157 138 126 117 107 121 133 147 165 144 161 157 142 114 127 141 138 146 145 160 162 194 183 166 152 173 186 200 179 153 117 151 165 159 159 169 177 182 191 203 201 206 216 236 243 303 284 238 217 205 209 226 187 195 198 208 211 235 245 248 261 270 310 494 608 595 704 861 844 1099 1159 1159 577 474 445 433 412 386 381 425 433 498 710 566 556 627 1019 1326 1248 1215 1260 1173 1313 1388 1737 1574 1203 1536 1619 1913 1807 1627 1583 1469 1159 1099 1166 1159 1076 1064 1074 1059 1069 1093 1019 985 954 944 955 972 968 951 968 1024 1093 1094 1092 1110 1098 1096 1160 1152 1117 1083 1079 1113 1154 1172 1196 1228 1257 1294 1322 1385 1396 1406 1404 1390 1406 1457 1586 1496 1414 1403 1528 1509 1316 1233 1234 1002 925 917 928 1018 1057 891 835 810 802 803 719 637 670 924 880 886 863 847 819 791 933 1016 1002 918 913 888 838 799 809 827 747 690 682 670 678 622 534 601 588 556 608 592 566 547 532 533 522 505 490 496 520 523 519 495
140 142 143 149 153 118 105 100 117 128 125 123 150 142 143 123 112 121 127 127 130 136 154 182 191 173 179 191 201 177 148 118 134 159 176 190 178 195 195 194 207 224 221 229 241 255 252 257 271 242 230 217 238 218 200 245 223 209 210 216 219 232 246 247 286 400 418 526 720 812 1004 1100 1446 1159 1144 666 460 411 396 392 398 419 495 470 814 601 626 587 778 1131 1270 1263 1222 1211 1255 1513 1813 1967 1890 2015 2018 1830 1729 1616 1392 1343 1124 1069 1178 1115 1096 1084 1071 1081 1054 1028 1012 946 952 945 947 964 990 976 959 1010 1067 1077 1044 1063 1075 1090 1139 1139 1087 1067 1087 1138 1152 1174 1198 1215 1249 1298 1345 1365 1393 1429 1433 1412 1438 1533 1613 1484 1349 1326 1333 1316 1284 1270 1163 1025 965 938 993 1108 1088 953 878 841 762 720 637 631 961 959 892 902 892 897 873 828 945 1011 984 924 921 892 856 818 775 778 719 690 717 695 665 616 544 616 633 588 596 580 568 555 545 527 522 510 491 511 521 538 534 521
138 115 141 175 128 104 94 96 104 110 107 127 149 121 127 122 102 112 117 115 118 134 156 168 191 194 186 168 170 134 116 122 140 160 168 194 209 203 222 215 226 212 204 218 227 250 269 281 330 285 240 237 248 209 215 343 234 223 220 238 249 231 235 244 272 300 392 496 628 790 905 1115 1444 1518 1451 1150 493 421 416 428 470 437 689 587 715 696 579 664 715 882 1312 1443 1394 1376 1511 1690 1756 1739 1870 1817 1813 1784 1479 1390 1298 1265 1176 1132 1071 1079 1066 1067 1059 1063 1048 1035 982 956 972 948 970 988 1021 995 993 990 1045 1061 1036 1069 1065 1072 1059 1074 1104 1179 1180 1183 1172 1179 1182 1236 1259 1295 1328 1378 1416 1445 1464 1464 1550 1612 1553 1378 1340 1310 1297 1317 1300 1243 1313 1227 1062 1069 1077 1054 1073 981 903 773 691 639 668 702 1010 921 916 1003 973 962 961 907 1042 1066 981 959 952 935 876 812 750 763 725 706 723 698 683 640 603 624 636 612 595 574 570 577 566 547 524 515 509 530 542 559 554 550
118 105 137 139 121 98 93 86 95 99 115 137 133 115 107 113 93 99 103 106 119 129 132 160 185 179 169 157 139 122 117 137 169 189 194 200 215 191 185 197 199 194 210 221 236 261 286 322 322 303 288 268 469 392 291 409 362 249 236 242 252 236 227 245 286 318 366 439 548 721 825 1045 1422 1620 1452 1143 577 567 541 481 458 506 1079 889 727 783 616 644 756 909 1083 1347 1642 1609 1254 1288 1578 1473 1605 1662 1624 1628 1567 1347 1253 1240 1124 1071 1068 1079 1079 1051 1042 1038 1030 1025 1020 1001 971 959 1009 1004 1030 1017 987 1032 1042 1032 1027 1039 1046 1046 1056 1088 1143 1159 1190 1213 1199 1204 1223 1232 1267 1315 1357 1392 1438 1454 1464 1506 1507 1527 1430 1373 1340 1311 1294 1340 1312 1245 1249 1216 1172 1156 1096 966 913 837 808 680 661 819 778 789 980 929 1007 1117 1145 1091 1046 997 1079 1052 1003 990 985 918 838 799 750 733 719 728 726 706 689 683 684 640 615 605 586 592 582 567 566 550 524 533 518 541 540 552 569 579
126 107 124 124 109 95 86 82 88 101 107 131 120 104 107 88 96 110 123 111 131 139 157 165 186 181 155 146 137 135 148 127 147 170 179 184 188 188 173 177 196 187 211 195 230 278 223 308 235 241 268 273 426 739 694 837 539 255 232 258 263 251 244 268 285 275 309 507 548 610 747 980 1314 1589 1600 1336 1235 1059 734 468 448 517 1057 986 842 898 839 859 1098 1154 1339 1525 1740 1698 1185 1055 1312 1385 1259 1389 1286 1464 1384 1309 1222 1294 1163 1065 1047 1067 1061 1066 1040 1041 1057 1031 1053 1039 1020 982 976 995 1017 1061 1033 1049 1035 1012 1035 1034 1039 1095 1128 1145 1179 1186 1190 1205 1215 1252 1294 1280 1285 1357 1369 1390 1449 1498 1513 1457 1454 1509 1520 1437 1377 1343 1311 1277 1277 1243 1193 1174 1121 1012 869 741 676 681 674 701 955 1049 1001 956 956 943 1124 1243 1201 1140 1123 1089 1090 1024 960 943 954 857 793 768 769 788 751 741 716 718 715 691 697 679 621 594 591 584 563 555 549 529 532 554 532 539 554 573 563 580
105 97 118 122 94 90 81 77 80 90 102 127 130 108 85 96 107 111 133 135 141 158 163 179 205 202 175 148 155 151 168 143 151 146 155 156 167 267 201 190 207 219 290 284 342 336 357 346 217 231 215 225 270 372 652 758 750 326 247 301 334 262 239 260 260 271 343 515 618 506 636 1000 1120 1567 1656 1556 1585 1373 896 565 478 567 835 1124 943 846 946 1068 1547 1814 1747 1807 1650 1490 1074 1031 1160 1270 1090 1193 1209 1306 1195 1375 1210 1244 1072 1029 1034 1063 1063 1048 1045 1056 1050 1052 1049 1080 1108 989 974 1021 1069 1096 1085 1061 1047 1019 1006 1047 1066 1081 1118 1151 1185 1200 1219 1228 1229 1202 1262 1324 1382 1387 1415 1401 1413 1463 1436 1372 1382 1396 1415 1440 1428 1404 1332 1271 1219 1163 1150 987 830 722 686 657 650 698 875 1034 1066 1029 1027 1016 1019 1027 1162 1190 1207 1183 1170 1129 1098 1064 1012 939 927 879 819 799 772 768 742 724 724 735 726 719 712 676 639 617 610 586 579 579 545 557 562 558 538 561 568 575 561 557
115 93 96 101 92 80 84 71 88 105 130 122 102 92 81 95 113 129 137 141 146 142 148 167 190 186 168 175 164 168 182 164 182 162 182 167 162 439 282 211 208 265 639 605 621 506 465 423 276 254 254 230 232 287 437 414 738 435 255 334 433 300 278 260 254 269 475 355 381 464 697 1190 1194 1386 1669 1631 1711 1719 1399 799 573 629 1103 1514 1299 906 968 1216 1656 1764 1526 1577 1420 1190 1076 1021 1073 1224 1114 1075 1061 1133 1119 1170 1105 1057 1037 1004 1028 1060 1067 1060 1062 1062 1056 1060 1045 1075 1133 1075 1036 1061 1083 1145 1054 1037 1006 990 995 1041 1124 1132 1125 1162 1175 1192 1229 1217 1208 1176 1218 1302 1404 1379 1392 1359 1331 1313 1258 1288 1296 1309 1305 1283 1306 1287 1222 1097 944 900 787 694 685 680 671 737 968 1181 1162 1113 1092 1065 1062 1065 1107 1078 1114 1149 1157 1202 1181 1130 1103 1069 1037 995 864 824 808 799 751 740 750 757 737 713 682 700 696 679 645 624 608 587 580 565 553 583 559 548 560 569 584 588 570 554
109 95 78 83 91 83 67 83 101 121 137 119 111 91 75 86 107 131 114 109 109 120 141 160 165 157 160 199 176 188 205 175 193 189 175 192 169 380 246 233 228 430 859 763 668 483 582 673 600 431 358 321 274 417 458 479 880 418 274 322 361 352 364 286 261 258 398 279 337 393 646 1206 1449 1618 1776 1737 1673 1621 1623 1442 1190 1052 1408 1538 1576 1336 1405 1433 1431 1317 1202 1294 1239 1059 1043 1004 1070 1080 1112 1062 1034 1038 1056 1046 1012 1043 1047 1026 1026 1036 1045 1046 1046 1045 1018 1023 1064 1103 1141 1169 1047 1079 1134 1130 1044 1013 987 999 1025 1036 1107 1156 1169 1167 1173 1198 1210 1187 1180 1133 1183 1246 1264 1230 1264 1286 1284 1283 1236 1214 1222 1200 1179 1101 1089 1087 996 900 835 770 722 692 730 831 1029 1164 1213 1214 1157 1178 1149 1104 1084 1080 1168 1116 1103 1124 1148 1195 1206 1154 1129 1045 1026 936 809 780 763 757 767 760 780 771 745 701 667 675 662 652 620 607 599 595 602 604 586 577 557 563 580 583 590 597 570 554
101 92 92 75 77 77 66 82 105 115 146 147 114 88 74 92 118 107 89 94 107 122 136 134 143 133 159 197 184 196 215 188 213 199 175 196 166 263 203 209 217 410 545 445 269 299 370 564 526 462 404 378 268 304 529 569 869 645 577 651 387 382 568 265 268 281 294 338 304 503 802 1247 1527 1655 1716 1735 1655 1572 1567 1500 1523 1565 1545 1559 1577 1605 1687 1536 1379 1233 1134 1151 1074 1087 1098 1015 1037 1308 1205 1212 1149 1064 1016 1003 1021 1030 1034 1036 1015 1014 1003 1021 1011 1004 1005 1044 1171 1157 1190 1205 1079 1111 1139 1092 1035 1023 966 971 985 1000 1073 1086 1143 1179 1188 1177 1172 1102 1111 1103 1090 1127 1126 1182 1171 1227 1230 1202 1182 1113 1088 1018 966 962 977 988 968 910 813 754 749 745 926 1136 1190 1185 1199 1165 1179 1211 1155 1126 1119 1130 1184 1103 1111 1132 1150 1184 1231 1144 1058 1023 973 879 806 789 769 795 812 784 787 792 756 712 676 649 639 638 636 626 623 657 656 625 584 565 567 579 601 608 606 594 576 542
98 99 84 79 68 75 62 81 99 116 142 109 89 81 74 91 92 80 94 116 126 129 119 118 120 138 165 206 196 220 205 200 225 187 197 199 183 174 175 182 188 263 300 216 242 333 494 535 581 657 708 459 385 676 494 531 684 752 908 800 513 469 524 322 353 300 510 299 382 714 1107 1390 1452 1521 1618 1555 1619 1547 1545 1437 1478 1539 1526 1539 1557 1570 1586 1647 1374 1225 1149 1071 1066 1030 1073 1007 1080 1165 1149 1135 1145 1090 1023 1003 989 981 981 1000 1004 1025 975 966 991 989 1031 1094 1160 1149 1165 1206 1105 1120 1129 1092 1027 1005 951 961 939 937 1003 1029 1068 1142 1141 1100 1094 996 958 1012 1019 1030 1080 1132 1095 1113 1137 1081 1089 1068 1057 1006 950 919 938 948 927 912 815 806 886 1076 1236 1256 1188 1173 1186 1166 1178 1231 1133 1156 1151 1171 1140 1119 1148 1159 1166 1180 1166 1064 1050 996 924 864 821 798 789 832 856 815 815 781 715 690 664 672 678 659 650 646 641 684 655 602 581 597 588 580 606 618 595 583 564 541
91 84 82 75 67 59 61 94 107 133 156 119 100 88 70 71 69 78 100 104 100 103 105 119 136 174 188 212 222 230 229 208 216 191 243 215 212 186 185 261 193 273 234 193 208 325 580 630 425 687 819 534 594 863 726 650 697 829 851 1034 968 899 734 529 325 321 566 280 366 831 1243 1348 1326 1437 1504 1485 1544 1517 1543 1407 1481 1538 1489 1517 1532 1553 1417 1348 1253 1222 1168 1107 1078 1047 1035 1016 1033 1102 1064 1075 1042 996 995 1017 1011 995 964 956 941 913 956 971 998 990 1059 1134 1181 1149 1195 1185 1132 1130 1142 1073 1013 981 948 938 921 933 985 963 984 1001 971 944 940 977 988 963 999 979 992 1042 1039 1076 1084 1105 1085 1046 1023 995 957 917 890 893 883 881 939 1095 1205 1256 1263 1234 1197 1235 1251 1196 1180 1183 1145 1180 1204 1174 1132 1130 1159 1210 1204 1184 1091 1054 1015 992 951 897 858 816 850 890 864 864 844 790 749 696 680 712 729 691 685 660 654 702 651 614 598 614 615 591 598 624 615 589 561 552
87 80 71 64 58 57 74 87 139 191 221 152 119 99 96 66 66 79 77 78 89 109 110 134 166 183 180 196 212 238 244 219 231 245 266 261 227 207 196 490 216 279 224 213 312 281 411 367 247 498 530 437 557 773 809 800 857 919 944 1026 1058 950 646 695 450 367 523 333 402 788 1138 1230 1350 1475 1469 1394 1463 1517 1509 1374 1447 1510 1462 1493 1521 1590 1602 1332 1232 1210 1159 1111 1067 1066 1015 1000 990 1049 1055 1067 1030 981 967 966 975 922 947 907 911 985 996 1019 1006 969 989 1140 1165 1121 1160 1178 1176 1196 1157 986 945 940 930 934 921 937 951 929 919 945 966 920 929 959 984 944 938 941 958 964 1019 1038 1035 1052 1092 1047 1015 995 926 891 901 938 996 1104 1199 1239 1244 1238 1231 1206 1211 1252 1257 1209 1209 1171 1184 1188 1190 1150 1142 1182 1161 1209 1227 1153 1115 1075 1011 984 961 921 895 867 947 929 899 900 864 817 775 715 718 751 758 707 693 684 669 705 675 618 618 618 600 597 617 652 626 594 573 554
80 73 71 70 70 63 63 101 299 243 137 115 104 92 77 62 62 74 80 86 111 115 128 152 165 165 185 189 211 235 259 254 251 206 235 414 271 208 236 549 285 798 211 210 241 235 540 715 386 509 494 485 440 742 784 768 897 970 1091 1036 948 1115 1159 556 474 418 411 520 715 479 1170 1084 1336 1347 1374 1286 1516 1549 1571 1399 1344 1450 1480 1462 1472 1688 1471 1249 1206 1191 1167 1098 1092 1058 1041 999 1003 1094 1026 967 953 927 924 909 913 888 907 938 970 948 979 964 955 928 963 1079 1094 1136 1132 1139 1156 1156 1058 961 929 934 915 909 916 939 930 923 906 921 910 904 906 921 944 956 925 959 965 951 979 998 1003 1009 1047 1039 1023 987 983 1021 1059 1129 1167 1201 1219 1254 1260 1239 1225 1237 1204 1226 1251 1236 1188 1167 1193 1161 1145 1160 1169 1226 1187 1208 1229 1179 1118 1045 996 977 963 941 914 932 984 952 936 901 862 826 780 761 763 786 748 736 712 688 686 724 717 664 664 643 624 620 652 655 615 579 561 576
90 96 99 99 78 60 60 174 153 149 102 91 87 72 59 59 72 99 94 101 95 103 131 147 151 168 188 204 210 332 305 307 283 214 233 480 548 221 392 572 398 606 220 303 323 309 634 441 671 1020 1046 705 497 819 866 827 898 912 926 902 931 986 1140 551 712 465 444 796 825 621 903 807 1024 1075 1200 1335 1467 1550 1580 1378 1299 1334 1349 1372 1427 1504 1389 1287 1227 1199 1175 1152 1134 1074 1050 1026 1013 1089 1007 949 949 932 922 925 909 900 945 990 951 914 913 902 905 899 945 1041 1092 1170 1179 1163 1170 1157 1049 1012 999 933 925 916 902 922 944 915 896 904 898 918 931 939 947 961 946 932 948 939 943 940 955 987 1042 1076 1082 1109 1126 1142 1137 1161 1169 1199 1219 1239 1245 1235 1230 1234 1219 1229 1233 1230 1199 1186 1183 1179 1172 1190 1228 1238 1202 1204 1228 1191 1114 1023 984 1011 988 955 965 972 1011 990 960 904 866 822 856 849 802 803 763 750 739 739 733 734 708 694 667 636 644 644 651 639 621 585 576 583
113 113 113 88 81 76 59 65 73 118 104 77 69 60 53 67 85 103 95 75 87 126 140 131 140 159 175 206 222 319 282 526 299 232 241 386 571 229 608 362 679 591 266 576 379 761 880 842 1152 1181 1129 852 530 786 886 788 904 905 908 899 955 1091 1145 658 840 541 828 1101 1034 906 656 727 1008 1125 1213 1338 1327 1382 1379 1330 1376 1469 1506 1523 1587 1437 1238 1226 1207 1195 1182 1204 1118 1055 1057 998 970 1031 1027 1003 963 916 903 892 879 893 900 919 917 909 891 884 881 908 964 999 1052 1141 1160 1141 1138 1098 1045 1015 958 897 906 915 887 938 902 901 893 896 909 907 923 943 942 953 954 926 922 933 952 947 958 984 1023 1073 1094 1114 1135 1116 1122 1125 1130 1142 1157 1176 1192 1169 1195 1226 1218 1225 1217 1207 1182 1157 1198 1198 1196 1198 1212 1228 1227 1208 1233 1183 1156 1080 1043 1061 1000 977 1012 998 1022 1023 1005 966 933 901 917 918 870 882 832 782 741 747 725 695 680 664 640 611 633 627 610 633 637 598 600 593
127 123 115 96 105 96 72 50 75 104 88 75 58 51 52 80 95 72 64 71 102 134 115 119 148 222 174 202 252 346 255 284 305 312 278 441 470 263 439 284 727 583 357 704 428 1043 1108 1002 1257 1102 1066 921 491 696 829 839 859 874 894 908 943 993 1126 982 1121 1155 1284 1375 1288 1142 688 735 1143 1307 1316 1506 1507 1515 1532 1322 1450 1495 1533 1531 1610 1416 1195 1224 1215 1203 1183 1169 1161 1088 1068 1034 973 981 953 929 920 912 905 908 891 876 883 896 895 913 888 888 918 944 944 957 1014 1115 962 933 934 962 1031 1028 884 882 872 875 864 856 866 881 886 889 895 901 929 932 939 934 927 918 924 951 985 971 983 1010 1024 1056 1094 1104 1114 1101 1082 1072 1079 1089 1107 1122 1131 1130 1197 1222 1186 1199 1226 1175 1105 1111 1157 1176 1180 1195 1200 1220 1238 1238 1221 1175 1200 1169 1085 1036 1000 1049 1031 1024 998 993 1002 985 982 960 963 938 906 945 881 794 746 688 712 688 666 642 613 624 607 591 598 609 621 619 598 594
103 99 94 103 91 76 61 49 59 59 77 59 47 46 57 71 73 56 66 80 89 105 109 124 156 237 188 228 310 315 351 534 620 357 316 395 418 335 567 227 441 499 495 829 657 905 1134 1221 1349 1068 1065 940 625 709 750 922 872 888 915 979 977 1001 1094 1291 1602 1525 1607 1529 1323 1221 825 993 1046 1391 1276 1472 1513 1605 1581 1433 1568 1602 1563 1510 1381 1248 1181 1210 1185 1168 1165 1152 1135 1142 1089 1043 983 946 958 974 956 923 914 904 896 886 870 883 886 894 881 878 894 896 896 909 925 947 914 898 902 925 937 909 877 868 881 875 890 878 883 867 869 869 878 904 917 942 947 917 916 930 950 952 975 988 1024 1051 1058 1073 1080 1053 1077 1099 1076 1041 1064 1035 1072 1057 1066 1074 1092 1161 1150 1201 1212 1191 1114 1080 1122 1129 1126 1179 1220 1212 1223 1180 1206 1186 1189 1137 1125 1029 1049 1070 1036 1019 987 965 970 950 971 987 980 970 925 936 848 786 777 714 665 677 654 621 642 661 626 591 571 577 597 606 574 568
87 89 81 104 100 77 64 50 43 48 68 57 43 52 57 58 55 60 69 104 115 108 120 130 209 203 245 472 300 337 630 1267 930 341 367 359 362 339 440 300 599 695 860 573 626 586 942 1386 1315 1074 1085 943 900 800 741 808 860 892 938 915 969 1009 1100 1287 1611 1723 1670 1575 1354 1276 976 1133 1029 1317 1218 1424 1609 1637 1524 1505 1543 1636 1666 1442 1212 1328 1235 1152 1124 1154 1162 1146 1134 1116 1123 1055 993 957 946 959 984 942 938 898 889 888 873 872 874 880 877 867 876 878 882 894 904 887 885 889 892 886 881 866 872 885 899 900 898 900 903 882 889 892 875 884 900 928 917 905 933 937 959 974 987 1004 1051 1061 1068 1066 1068 1034 1033 1067 1050 1022 1008 984 979 965 1017 1007 998 1041 1128 1188 1175 1162 1134 1069 1091 1097 1108 1206 1234 1197 1202 1095 1107 1108 1098 1085 1115 1094 1074 1037 999 974 946 953 964 932 953 997 980 979 919 843 738 765 777 741 666 636 630 658 663 634 608 601 596 567 578 596 570 546
82 75 73 90 98 76 66 58 47 40 50 56 41 52 42 51 110 75 100 102 106 121 136 139 165 313 454 376 386 504 838 1327 678 394 438 403 361 370 305 272 296 673 857 725 803 677 692 1109 1167 1090 1130 1125 1023 858 845 852 845 1061 1119 945 1006 1040 1173 1211 1412 1652 1745 1574 1511 1349 1163 1010 1278 1375 1227 1373 1521 1487 1335 1583 1590 1420 1343 1228 1177 1225 1220 1143 1135 1105 1106 1084 1106 1097 1004 954 955 958 950 929 936 978 955 910 907 902 883 876 868 867 869 871 865 863 873 869 875 869 885 889 877 856 862 889 954 910 914 917 910 896 888 892 921 911 901 887 896 898 907 915 936 959 953 968 984 1024 1053 1050 1050 1036 1007 996 1037 1069 1080 1038 969 933 952 941 954 962 998 1007 1031 1112 1139 1106 1102 1067 1103 1088 1133 1192 1230 1153 1150 1087 1050 1064 1045 1057 1100 1082 1042 1019 995 962 943 921 936 914 948 974 989 996 952 902 772 695 687 695 645 649 679 667 639 619 615 635 609 575 561 577 554 536
89 76 67 67 73 72 65 57 51 38 39 47 37 38 42 75 84 109 107 121 112 118 138 175 168 415 467 178 229 306 801 1088 864 629 478 448 406 372 384 402 326 294 514 480 577 743 905 991 1112 1081 1084 1158 1088 766 942 965 914 1227 1307 1090 1094 1184 1285 1360 1644 1828 1772 1727 1696 1322 1162 1200 1315 1401 1244 1226 1093 914 831 1076 1381 1037 902 1068 1213 1190 1125 1094 1077 1083 1074 1065 1029 1000 1011 965 929 944 930 921 948 972 985 916 913 908 905 890 873 873 867 852 846 845 849 859 865 875 882 886 867 871 882 896 946 1065 950 920 913 911 911 915 936 933 916 916 925 921 925 938 945 964 987 998 1013 1028 1033 1037 1011 986 969 1006 1023 1045 1038 1004 979 931 927 938 968 1016 990 1079 1105 1094 1113 1092 1063 1041 1086 1084 1121 1188 1200 1134 1157 1130 1064 1048 1040 1037 1051 1041 1016 994 970 942 929 924 910 903 922 959 975 930 863 830 764 677 646 646 650 686 688 657 652 618 651 629 610 588 557 539 538 517
93 78 65 54 60 72 72 63 52 43 34 36 35 41 47 62 117 111 124 129 127 131 202 412 400 202 293 169 205 329 634 1051 1389 1043 495 448 444 396 346 389 421 296 420 419 616 485 724 1084 1132 1077 1056 1165 1199 888 1180 1105 1105 1347 1332 1242 1042 1229 1262 1292 1510 1848 1979 1913 1837 1408 1335 1475 1525 1435 1305 859 788 764 810 878 842 839 762 794 1190 1290 1176 1131 1096 1114 1015 1015 1018 954 924 935 936 918 913 929 965 1004 985 978 966 936 890 877 870 873 870 869 867 859 847 870 869 877 873 873 870 891 891 902 943 1238 987 934 923 921 928 935 942 944 912 945 949 940 953 956 970 979 999 1007 998 998 1018 1027 1027 1024 1000 972 961 984 998 950 972 949 911 954 995 1029 1013 1101 1082 1074 1095 1073 1066 1040 1089 1061 1089 1138 1140 1069 1087 1104 1083 1020 1045 1013 1005 1004 999 985 950 948 965 962 921 894 911 949 913 875 842 743 673 657 669 658 656 704 685 667 634 623 643 620 593 581 561 537 525 527
80 68 60 50 60 75 79 67 54 52 33 31 36 40 61 93 98 118 136 154 150 175 232 559 453 204 173 164 232 257 421 792 1467 1124 719 642 468 457 418 374 393 374 382 498 638 647 592 830 1061 1081 1046 1150 1249 1258 1430 1203 1327 1439 1385 1177 1107 1238 1299 1747 1767 1847 1909 2008 1919 1548 1239 1244 1229 1387 1214 784 857 811 757 769 767 756 793 746 973 1137 1158 1112 1082 1050 1003 955 964 938 913 917 951 914 936 938 943 975 998 956 894 878 872 867 869 867 870 869 868 865 846 845 851 875 868 865 878 893 909 914 932 979 993 911 913 922 942 964 956 940 927 940 955 956 971 975 989 988 984 1004 987 996 1012 1007 1018 1027 1009 1010 962 933 941 930 944 928 918 952 984 1029 1057 1072 1044 1074 1088 1056 1029 1044 1051 1048 1100 1118 1115 1069 1035 1060 1078 1039 1001 1002 988 984 970 971 955 974 979 949 896 888 891 934 888 847 771 693 684 688 656 654 667 708 681 651 649 659 652 610 622 584 585 563 553 550
75 67 56 45 62 76 74 66 52 42 45 38 33 46 52 72 100 132 152 176 146 177 225 850 235 161 243 159 243 202 302 573 889 1441 867 1015 636 616 555 471 431 472 702 446 488 829 627 710 874 1044 1021 1142 1333 1451 1438 1458 1611 1551 1399 1373 1113 1251 1615 2162 2085 1919 1963 1887 1888 1511 937 847 909 946 959 763 908 794 742 747 753 750 753 744 1056 882 1015 1178 1140 1136 1093 963 936 912 921 928 939 920 942 950 954 940 905 885 878 873 868 872 865 863 861 865 854 850 850 844 861 862 857 875 884 892 903 901 914 918 909 903 909 914 937 943 969 952 946 965 975 975 985 984 981 972 984 971 970 1003 1023 1011 979 1008 991 997 1007 983 959 934 912 915 945 983 1003 1038 1088 1116 1039 1038 1034 1044 1025 1023 1018 1034 1080 1120 1127 1073 1029 1024 1045 1010 1010 986 970 971 977 980 966 961 930 921 859 790 858 890 834 811 869 724 701 678 655 692 692 728 685 651 669 646 633 622 648 619 590 583 564 550
79 71 58 41 55 63 73 64 51 39 38 33 36 42 54 95 104 128 144 162 163 171 259 569 184 173 341 152 238 181 283 425 638 1125 1121 1262 882 737 730 585 587 464 587 638 547 709 743 756 698 1047 977 1061 1184 1359 1493 1655 1872 1967 1651 1524 1264 1276 1690 2182 2137 2092 2027 1723 1507 1141 810 765 782 812 769 746 742 871 741 740 745 737 728 731 868 772 832 1065 1030 1062 1017 959 906 899 928 927 929 925 921 924 937 936 912 888 879 872 881 880 873 873 867 863 873 872 849 852 877 874 868 878 873 887 894 893 902 915 904 891 895 910 912 900 921 961 967 974 978 974 975 973 961 959 961 943 955 998 1022 1009 981 960 969 972 989 996 976 924 921 979 959 978 1028 1077 1097 1101 1023 986 1000 991 1014 1007 993 1014 1040 1087 1131 1081 1049 1020 1013 994 983 974 986 998 991 972 955 959 949 938 885 760 820 802 809 728 750 715 681 660 671 697 715 697 663 668 686 655 634 648 655 635 604 558 538 526
70 70 57 38 45 63 61 55 46 36 29 31 37 45 65 107 120 135 128 136 143 150 266 326 160 406 369 154 215 271 307 285 382 786 1135 1287 901 920 863 606 807 859 767 872 764 774 726 811 693 748 759 1055 1203 1457 1525 1632 2000 2381 2091 1627 1621 1555 1765 2029 1997 2113 2119 1644 1445 1073 782 756 752 764 749 740 730 739 725 729 737 727 724 728 731 740 807 946 970 917 903 905 934 927 885 889 872 895 912 973 998 1002 961 897 885 882 892 885 877 875 875 874 878 866 849 857 876 891 889 886 885 884 900 892 908 911 900 883 882 887 881 870 906 963 972 973 965 958 960 962 970 945 942 922 958 989 1009 999 994 970 947 932 957 948 899 921 975 976 995 982 1026 1091 1120 1106 1016 959 974 964 989 993 973 966 1034 1074 1107 1119 1080 1047 1016 1015 984 991 1011 1004 975 951 935 928 956 926 886 829 726 711 721 702 691 692 673 678 706 741 732 685 662 678 680 643 654 665 655 616 605 567 538 529
72 58 47 37 47 50 55 50 38 34 32 36 45 53 79 111 125 139 124 126 126 136 126 141 151 417 213 158 189 284 261 234 419 421 802 795 631 1006 830 860 1030 1240 806 960 773 943 828 1021 1059 614 752 917 888 1036 1289 1299 1705 2017 2271 1990 2291 2195 2011 1905 1809 2026 2174 1942 1530 985 835 935 831 744 742 739 742 735 724 723 731 720 718 723 730 748 782 874 870 831 824 770 778 845 852 884 910 939 962 970 976 1000 1011 929 894 892 897 896 886 885 887 883 883 859 843 875 851 893 897 897 895 897 897 895 899 909 905 884 873 884 859 880 891 964 960 955 967 967 975 966 948 938 909 959 975 1004 994 969 964 971 966 963 924 904 919 967 982 979 1002 1007 1040 1111 1080 1057 993 942 936 956 959 953 896 896 1006 1090 1073 1080 1053 1026 1017 1022 1002 1000 1015 999 956 936 920 930 955 934 848 818 728 708 700 683 676 668 693 680 748 761 696 683 672 697 687 658 699 676 672 633 605 558 536 535
78 63 55 38 35 46 48 37 36 30 30 43 50 56 83 85 110 130 117 132 125 118 118 130 153 159 139 160 165 198 283 186 174 283 447 341 365 1104 945 1123 1275 1129 880 1037 1018 1333 1045 1188 1295 687 689 817 931 962 1208 1282 1427 1751 2227 2363 2707 2242 2060 1860 1713 1865 1722 1859 1849 1263 1152 903 759 746 739 745 735 728 720 729 727 719 726 736 740 773 906 831 780 809 771 804 856 870 906 923 916 945 989 980 950 973 951 906 912 912 908 910 896 895 889 886 878 868 838 834 815 852 880 900 909 904 901 893 885 902 900 879 866 881 861 889 905 929 956 903 970 979 963 945 929 937 916 973 992 1009 996 971 952 940 930 924 925 906 902 924 924 926 984 1044 1053 1090 1046 1032 989 957 913 915 931 901 818 875 950 1090 1062 1050 1043 1030 1036 1020 1010 1036 1015 991 973 969 942 905 912 904 840 737 731 710 702 708 692 688 722 712 762 728 689 717 688 706 702 689 703 699 649 610 586 574 541 568
82 64 50 39 32 41 37 27 31 27 28 36 51 61 86 67 75 92 121 123 111 137 129 135 205 136 197 209 181 177 232 177 157 324 280 234 298 977 740 849 1081 1304 1406 1366 1484 1675 1501 1521 1291 1047 747 992 932 1067 1355 1680 1705 1893 1974 1923 1878 2137 1947 1755 1580 1547 1265 1346 1645 1522 1275 882 766 752 756 751 744 729 720 729 727 723 727 735 750 793 869 846 737 741 782 914 929 895 904 918 941 959 962 960 943 930 940 915 896 891 890 900 897 895 886 882 874 882 844 855 784 790 815 889 900 906 904 902 884 890 885 874 859 857 880 894 912 931 916 846 866 944 954 950 944 922 892 933 981 995 998 992 985 970 947 952 956 941 879 909 898 957 996 1039 1048 1080 1037 1001 1002 978 922 887 880 849 797 901 952 1014 1079 1085 1039 1044 1039 1028 1051 1063 1026 988 958 945 946 912 892 906 842 727 708 710 753 739 725 693 762 780 776 706 723 722 693 711 721 710 727 700 636 611 591 571 564 556
66 69 58 47 33 34 25 27 30 31 31 36 43 53 65 52 57 66 83 91 100 127 142 142 167 142 127 181 162 181 183 186 157 222 256 176 268 528 678 989 1230 1412 1604 1541 1511 1744 1717 1537 1199 1172 1105 1061 997 1136 1547 2070 2017 1790 1469 1514 1496 1594 1816 1649 1428 1223 1163 1118 1246 1259 1228 1099 971 807 762 747 734 725 718 730 717 720 724 735 737 786 868 775 739 834 877 895 902 888 910 934 943 961 936 980 947 909 933 919 898 875 865 879 863 899 903 889 875 897 877 831 768 798 830 865 874 868 906 904 888 892 880 872 871 847 864 907 895 862 872 834 836 885 906 942 932 932 896 950 965 961 971 973 988 972 960 958 910 899 864 878 918 966 1017 1022 1041 1069 1058 1004 983 968 942 896 882 822 773 891 913 954 1063 1105 1058 1050 1062 1056 1040 1072 1005 973 964 959 927 901 898 864 824 750 731 741 775 758 721 714 817 813 750 722 739 720 716 738 737 725 726 678 631 594 578 563 555 555
47 52 47 44 28 28 27 43 48 47 37 32 35 38 70 61 77 87 95 92 94 111 128 133 168 139 124 129 140 171 176 143 186 181 188 147 371 784 1166 1627 1418 1341 1092 1541 1548 1755 1678 1602 1176 1217 1212 1213 1170 1212 1685 2149 1951 1531 1226 1343 1304 1252 1508 1581 1409 1168 1074 969 1065 1030 1020 871 833 781 760 780 751 730 723 717 721 730 744 741 724 739 745 736 872 910 907 895 883 898 908 919 923 921 947 923 902 919 931 926 903 903 888 858 806 874 899 894 851 871 852 797 766 781 830 850 868 853 866 896 904 908 906 873 834 826 883 920 880 854 847 839 830 839 866 924 943 920 894 933 952 948 948 950 985 995 940 904 873 860 884 909 914 963 987 1013 1026 1045 1062 1043 1019 1002 984 915 815 782 748 767 834 923 1048 1056 1035 1052 1071 1066 1048 1022 983 970 989 947 914 909 838 806 771 748 752 782 775 774 787 805 854 816 756 781 756 732 756 743 724 708 677 628 618 596 578 578 570 585
35 39 30 28 24 23 23 39 73 57 59 44 37 52 74 53 78 73 104 136 125 110 118 128 148 134 125 125 131 143 130 153 236 155 151 169 320 679 885 1396 1150 1146 968 1160 1485 1790 1708 1320 1198 1240 1263 1265 1253 1264 1541 1805 1465 1465 1267 1176 1192 1181 1231 1358 1299 1354 1206 1051 875 843 795 821 856 763 785 743 735 723 711 712 716 721 753 743 737 798 910 823 815 848 880 879 870 891 916 920 910 899 898 889 909 912 922 932 930 918 886 833 748 795 918 907 835 789 799 796 773 771 817 829 815 826 819 839 886 881 850 850 823 843 877 899 862 840 829 824 805 823 851 858 882 911 886 911 935 961 930 945 997 984 971 934 871 858 895 934 932 927 955 1012 993 1010 1020 1048 1046 1044 1015 934 849 811 742 690 729 845 970 980 965 997 1056 1049 984 995 998 990 967 935 949 959 863 804 803 775 755 794 808 879 870 891 867 815 801 779 779 772 771 716 695 683 661 633 672 640 614 578 563 599
34 35 24 24 24 30 39 52 101 66 68 46 44 90 71 44 50 89 107 146 163 128 107 111 115 100 121 106 122 126 126 143 167 144 191 276 274 804 678 1303 874 817 1015 1392 1515 1732 1499 1383 1261 1237 1235 1239 1287 1497 1756 1515 1252 1217 1188 1163 1166 1172 1227 1170 1322 1900 1496 1050 866 810 790 758 748 747 758 765 753 733 703 718 726 767 857 789 794 889 848 848 821 852 883 878 869 883 903 904 896 890 889 885 905 904 914 928 940 947 896 764 731 779 853 830 763 762 789 789 780 777 818 836 814 795 822 841 856 849 842 820 811 856 885 892 857 823 821 817 796 811 817 835 855 921 885 907 960 983 931 952 989 939 919 911 866 864 918 945 969 956 962 1006 990 1010 1012 1024 1038 1062 1036 968 923 881 710 667 699 860 936 937 900 927 956 936 812 942 1023 985 965 950 944 964 888 848 823 792 761 787 827 862 917 910 893 853 837 812 799 772 733 707 755 723 693 662 655 628 610 584 572 591
26 30 36 62 32 39 36 44 64 76 61 61 90 141 110 66 72 106 138 136 156 115 98 114 110 87 100 111 112 107 122 132 140 146 209 188 495 601 454 978 685 687 803 991 1457 1625 1328 1458 1293 1285 1267 1332 1635 2102 2055 1607 1273 1220 1186 1160 1153 1162 1188 1159 1412 1785 1512 1099 919 970 1068 786 817 736 739 776 732 728 707 732 734 769 798 749 747 824 866 824 798 889 857 864 868 886 894 881 880 874 872 889 906 903 913 915 875 863 833 759 733 748 761 767 742 771 786 782 784 776 809 836 833 793 819 817 823 855 841 804 825 867 864 849 841 831 801 802 804 816 836 872 896 920 881 909 948 931 930 922 940 895 885 878 853 885 930 956 999 991 996 1019 990 993 984 1021 1014 1035 1014 966 919 921 710 676 710 792 929 936 721 692 718 731 760 821 974 991 972 895 893 979 953 898 836 794 819 799 832 882 936 933 913 864 842 817 797 743 757 760 777 750 680 649 628 604 611 602 574 590
32 37 50 60 45 39 41 52 80 106 104 123 138 174 161 108 101 99 148 137 125 108 96 94 94 101 94 87 94 106 119 129 159 186 246 386 403 281 386 718 520 736 854 1113 1277 1160 1219 1325 1329 1402 1406 1520 2039 1965 1962 1552 1237 1183 1171 1168 1164 1156 1153 1160 1258 1416 1244 1093 1106 1145 1215 936 783 734 724 725 717 709 711 719 728 735 733 747 750 854 845 814 810 1210 891 849 848 874 900 890 873 872 891 890 899 895 903 866 803 769 762 740 736 743 729 731 748 773 775 780 767 777 798 822 813 806 810 804 795 843 832 792 809 839 856 841 829 812 774 793 827 833 858 870 900 905 880 894 916 911 888 873 879 858 833 853 888 873 905 964 993 1019 1001 1012 1002 956 978 1014 996 1014 1022 953 927 856 711 669 712 767 857 917 720 659 673 685 706 745 853 958 912 871 859 958 937 862 848 835 874 821 827 882 924 925 918 852 819 805 766 757 801 791 772 741 706 664 620 623 633 617 589 575
50 38 69 61 56 48 56 77 101 154 126 144 160 165 140 132 101 92 127 103 89 92 116 110 99 98 119 103 103 93 102 112 132 175 441 494 275 312 478 540 387 590 683 837 1068 1124 1186 1249 1340 1452 1767 1875 2065 1772 1723 1466 1224 1179 1177 1163 1157 1154 1154 1157 1209 1209 1216 1164 1157 1133 906 909 913 815 745 732 725 720 707 717 750 723 728 756 770 801 803 801 796 1001 836 835 864 872 893 880 861 868 870 875 884 889 892 840 786 754 747 734 720 728 721 749 768 793 768 755 780 732 756 788 784 760 774 785 785 827 817 794 788 819 848 855 834 801 750 761 815 833 872 914 918 907 898 874 905 929 841 818 864 874 892 902 919 907 900 927 952 994 985 1004 1018 978 959 970 966 1005 1020 970 974 894 768 657 676 691 780 714 665 654 703 698 709 725 780 837 924 883 839 900 960 927 923 873 908 845 856 872 924 870 898 862 818 801 778 807 783 765 723 734 709 641 639 643 623 611 592 579
41 57 68 59 61 60 75 143 147 195 177 152 171 232 216 150 91 71 115 103 83 105 124 119 110 107 121 143 127 99 97 101 157 139 210 367 476 358 313 389 424 763 1166 974 1043 1139 1313 1478 1555 1682 1943 1871 1864 1787 1406 1407 1256 1184 1173 1155 1151 1158 1157 1154 1163 1205 1221 1197 1161 1168 1151 1106 1006 911 834 732 721 711 701 708 734 716 722 737 775 793 789 787 769 784 818 837 872 874 905 898 864 868 882 888 904 910 933 908 918 866 769 747 736 728 725 720 727 735 753 741 750 741 708 753 746 712 760 764 765 807 814 787 816 842 855 842 817 788 737 778 791 826 855 910 916 909 894 881 877 857 781 864 893 914 924 925 948 937 924 945 979 1001 973 979 1009 996 950 964 986 979 1016 1001 1028 970 889 700 652 670 698 663 645 656 668 717 712 747 770 780 820 917 838 876 910 880 875 914 922 889 886 873 915 902 837 840 835 838 811 817 798 761 709 688 667 645 613 609 608 599 602 592
27 48 51 53 66 101 109 155 204 217 221 196 204 419 299 241 169 100 89 91 102 117 133 138 135 118 137 165 178 128 102 102 165 122 143 157 174 266 418 417 376 558 1070 1068 1002 1180 1415 1682 1864 1973 1987 1731 1582 1418 1303 1236 1243 1238 1201 1170 1159 1153 1171 1224 1231 1260 1213 1189 1167 1148 1101 1056 1015 900 746 721 719 711 704 701 713 727 750 733 737 776 786 783 763 780 803 852 888 887 898 914 867 896 915 913 913 924 939 924 956 967 901 758 753 745 736 721 710 718 733 727 725 711 686 718 740 718 738 725 747 770 786 778 807 830 837 824 815 779 733 764 775 826 879 903 915 902 894 895 844 774 751 736 822 922 947 951 966 970 958 976 1002 1002 964 985 1020 991 949 942 954 909 908 916 969 940 868 811 720 656 653 653 631 642 680 688 695 741 790 755 783 889 877 820 856 876 843 861 889 867 826 818 886 909 850 799 763 792 775 786 781 755 738 720 688 653 623 631 641 624 635 606
21 37 39 52 84 125 134 142 186 217 252 210 232 410 362 287 193 148 138 132 112 110 135 128 116 97 112 136 137 125 108 84 137 206 141 136 142 214 333 427 286 275 746 748 421 665 935 1688 2161 2313 2052 1720 1510 1298 1222 1203 1205 1255 1224 1200 1158 1153 1170 1367 1519 1425 1183 1167 1171 1147 1101 966 905 882 737 714 706 695 700 726 732 741 728 734 744 755 757 764 771 777 817 850 875 873 894 925 879 899 905 909 909 916 919 944 951 953 812 748 745 740 747 741 724 703 720 728 718 708 690 687 713 711 708 702 727 728 789 769 769 797 797 783 773 766 731 730 756 798 817 832 894 880 870 855 791 744 692 744 898 955 964 959 947 956 974 969 979 984 967 960 997 991 975 953 943 937 853 843 813 854 846 792 864 713 658 644 665 689 643 651 713 671 775 787 736 788 866 867 811 817 804 842 837 812 811 783 825 886 888 818 763 714 737 725 772 761 766 725 686 660 654 675 654 641 643 617
22 29 51 108 88 112 143 155 192 244 297 222 280 353 383 413 232 189 184 144 130 151 141 160 131 128 115 102 97 119 157 124 137 168 164 178 197 151 250 417 423 402 340 273 326 427 552 1067 1457 2090 2336 1813 1549 1386 1260 1222 1173 1204 1176 1168 1172 1176 1221 1274 1388 1421 1189 1159 1149 1098 915 813 927 853 749 706 691 697 764 763 757 746 746 767 782 799 776 771 765 800 825 825 838 851 856 874 885 901 907 892 892 898 911 939 953 962 825 756 732 725 753 738 718 700 708 730 724 721 718 697 700 726 717 698 705 716 742 754 750 771 784 790 757 725 702 706 709 726 723 739 800 845 835 777 788 729 702 765 911 900 929 937 928 949 965 970 944 954 943 949 982 1007 998 982 966 944 865 781 775 835 785 740 848 813 703 677 695 672 659 633 668 655 732 868 796 732 779 842 853 816 770 784 802 772 779 781 837 883 884 894 815 716 693 729 738 749 759 744 701 702 684 688 671 652 638 621
20 39 88 123 103 142 185 177 185 223 320 277 343 485 503 272 207 208 218 175 162 185 180 210 164 157 123 132 146 170 189 143 142 146 161 201 217 171 181 257 221 250 262 219 250 269 690 1561 2103 2261 2370 1956 1664 1453 1336 1236 1180 1156 1145 1153 1171 1160 1142 1224 1274 1230 1204 1170 1129 1055 959 905 770 777 745 706 691 714 764 775 697 724 798 794 777 827 801 810 793 809 855 847 836 836 860 864 882 892 898 905 899 915 922 937 902 850 776 748 729 719 733 737 724 713 698 715 720 712 714 703 696 723 724 697 715 725 737 746 752 746 744 718 717 695 712 687 684 695 716 727 759 803 809 734 718 702 708 836 883 877 912 916 919 939 947 976 956 931 927 947 959 972 987 1003 947 896 921 825 769 750 761 722 817 833 754 713 686 681 703 642 635 668 706 859 847 770 709 809 841 849 792 752 758 740 756 801 866 879 852 868 868 742 696 706 683 731 792 759 744 722 707 687 673 651 636 622
21 71 108 130 116 160 200 210 220 191 267 333 439 685 390 321 227 226 216 199 259 243 203 191 179 161 143 148 168 213 224 180 172 201 189 406 385 167 185 173 198 229 320 271 257 329 770 1498 2134 2244 2060 1872 1686 1501 1340 1265 1204 1155 1126 1120 1152 1124 1103 1127 1153 1144 1159 1172 1204 1187 1134 973 820 759 711 692 690 725 752 706 707 730 779 779 769 794 786 810 811 837 861 873 886 859 885 887 900 874 894 941 930 952 963 962 853 807 807 800 745 726 709 711 706 704 695 692 711 710 704 712 692 707 721 699 713 721 718 722 742 749 758 765 779 739 734 708 689 714 719 727 733 717 766 718 701 722 751 869 885 884 877 886 905 923 942 955 964 939 917 950 964 978 1009 1021 923 857 865 845 783 743 692 728 774 788 741 759 734 813 753 664 631 633 680 846 862 792 683 708 804 832 822 793 749 721 797 842 856 841 844 853 825 826 744 667 660 750 826 796 768 731 706 686 677 673 660 649
37 88 120 141 131 150 160 185 177 171 286 330 434 607 465 361 267 230 239 275 675 332 236 210 195 176 163 202 240 246 321 302 261 348 367 543 511 184 202 168 183 204 211 318 361 524 1083 1567 1808 1824 1758 1691 1583 1495 1388 1317 1266 1277 1318 1185 1105 1094 1137 1122 1216 1238 1111 1142 1150 1163 1136 1035 839 744 727 708 698 708 702 717 733 737 744 705 759 765 741 784 859 877 941 936 909 878 894 906 908 907 937 988 960 961 985 966 879 822 860 827 760 755 740 726 715 714 710 696 687 687 683 699 708 691 708 693 709 715 701 714 716 730 748 763 750 719 712 712 693 714 713 730 718 705 697 684 687 743 831 887 908 910 899 904 913 908 924 938 941 935 909 934 962 995 1002 953 860 810 796 805 747 745 689 724 748 725 714 736 779 863 879 761 663 618 664 770 798 806 695 644 757 814 840 792 742 706 711 761 809 824 816 853 833 795 787 686 634 715 796 812 753 734 712 705 699 673 668 667
29 78 105 123 130 139 151 151 148 156 175 205 224 453 528 428 235 207 312 339 658 306 262 210 196 174 152 191 345 260 286 246 264 262 348 285 232 197 190 207 230 227 270 317 509 947 1514 1562 1525 1512 1535 1512 1476 1448 1412 1345 1302 1332 1329 1197 1166 1087 1101 1088 1224 1403 992 1031 1023 1051 1015 949 837 772 724 732 701 700 688 709 727 733 706 703 752 727 723 883 1006 999 1018 968 958 909 931 923 931 942 956 973 995 973 933 898 824 794 820 780 749 742 733 739 736 728 711 705 701 704 704 696 687 678 680 675 697 699 693 702 703 719 724 738 725 716 700 682 702 713 716 723 682 684 679 701 718 805 888 924 927 927 917 914 921 905 908 925 912 930 913 914 948 966 978 937 873 877 799 746 713 711 695 701 756 716 697 762 780 831 887 730 671 637 610 685 756 779 693 622 729 759 785 806 774 717 662 641 731 800 782 836 828 777 754 653 605 701 794 802 779 731 737 714 697 707 692 661
29 78 111 101 119 122 148 160 137 146 175 174 156 310 507 421 211 158 293 348 421 334 248 275 220 192 148 192 307 324 267 336 317 265 306 248 215 205 206 222 266 335 278 378 727 1127 1550 1517 1391 1424 1501 1486 1452 1430 1413 1462 1354 1386 1385 1192 1046 1028 1075 1048 1030 1042 977 963 982 902 888 900 802 760 761 722 687 700 697 726 689 673 675 677 695 746 776 1017 1070 1062 1037 1014 972 887 933 962 956 973 992 986 997 999 852 734 771 772 769 758 746 737 723 714 734 717 715 716 712 717 713 724 719 714 710 698 675 669 671 693 695 715 713 724 717 702 695 678 701 716 720 722 683 699 709 720 780 845 900 923 920 907 916 910 908 914 896 905 897 915 899 915 929 941 965 949 870 868 845 760 754 735 690 699 751 700 685 713 737 804 800 820 728 665 586 610 691 714 639 649 691 730 787 839 765 786 735 637 648 665 734 792 793 783 655 644 618 692 812 735 737 705 747 719 714 721 693 690
18 67 86 106 120 111 118 142 129 151 185 141 150 224 363 201 163 156 200 255 417 604 349 322 214 204 167 172 224 327 373 376 308 257 237 228 225 237 213 216 263 278 320 552 1007 1246 1594 1452 1344 1389 1518 1507 1521 1507 1434 1487 1480 1427 1472 1203 1017 1094 1105 1008 1000 1002 973 944 945 890 770 787 765 743 735 713 681 686 698 694 655 654 654 651 695 754 876 847 942 1044 1029 879 671 723 780 825 760 807 933 967 841 818 743 701 726 745 745 738 731 722 713 702 708 721 711 713 712 713 716 720 727 729 722 709 714 703 681 678 675 712 705 711 712 684 677 700 713 717 727 725 679 701 733 792 770 878 878 895 905 906 908 903 885 912 910 893 884 903 888 916 940 950 964 923 846 811 820 774 737 740 701 671 697 669 681 723 758 801 746 812 781 670 605 578 637 640 604 670 737 831 801 834 843 827 803 745 622 592 627 720 760 768 689 574 646 773 818 784 657 660 744 753 723 735 714 697
21 32 90 118 111 100 104 113 125 148 151 137 140 184 186 182 157 158 189 329 636 416 443 493 270 299 182 170 190 367 341 529 297 245 249 239 243 256 250 260 283 301 369 423 769 1217 1521 1255 1221 1403 1476 1525 1672 1590 1535 1537 1528 1504 1538 1166 1018 1078 1042 996 1001 1001 973 966 937 924 800 732 735 746 722 717 665 671 701 719 665 640 634 645 666 709 736 680 648 651 647 625 619 618 625 631 634 640 669 674 668 744 698 680 671 706 704 740 741 726 714 719 720 697 685 689 710 706 707 717 715 721 727 721 712 700 703 702 669 700 679 678 694 682 690 712 734 759 746 718 675 715 788 844 849 885 855 860 887 905 890 877 873 892 898 893 873 872 887 906 930 923 897 879 863 833 773 744 742 735 704 681 673 665 673 714 791 805 741 795 823 688 685 618 571 633 578 610 679 806 840 874 877 829 859 805 741 694 587 580 679 745 701 608 671 750 759 721 638 636 717 787 750 753 756 704
25 17 42 105 102 107 94 102 108 144 150 134 135 154 135 134 146 150 164 434 600 292 400 416 538 296 203 182 229 306 464 652 574 384 247 248 254 302 314 366 346 392 456 678 1008 1388 1287 961 948 1354 1470 1543 1448 1420 1634 1574 1566 1567 1566 1278 1033 1018 1054 991 1037 983 965 974 954 833 745 728 711 733 687 669 705 706 706 685 710 640 629 641 641 666 672 670 645 634 626 617 611 610 615 626 621 634 636 644 647 650 643 656 653 664 673 717 711 713 695 701 710 715 696 682 699 708 706 706 707 718 715 708 709 706 700 691 676 674 688 694 678 677 713 720 744 775 704 669 692 721 743 767 820 870 859 853 876 894 895 873 863 881 896 873 863 846 862 873 902 910 842 859 851 826 774 731 724 708 709 712 672 652 672 732 769 834 701 701 828 813 752 676 593 569 576 637 697 787 820 867 876 864 882 842 816 764 719 650 558 621 678 617 650 721 743 691 595 694 734 796 792 779 773 727
31 22 11 36 89 92 88 97 108 121 140 124 146 167 119 137 165 139 166 447 538 304 324 335 503 259 241 224 225 286 379 425 390 433 253 263 270 285 326 386 372 562 924 1046 955 995 879 771 911 1365 1401 1250 1205 1412 1520 1586 1642 1644 1566 1433 1239 1016 1036 989 1007 971 936 962 909 830 732 720 708 684 652 692 720 712 703 656 712 635 613 624 624 638 644 647 642 629 620 611 607 606 608 617 624 630 634 641 633 634 641 652 653 643 666 704 703 690 686 693 688 692 667 678 690 702 708 697 691 708 699 692 709 712 704 699 689 664 705 718 702 694 709 693 706 681 693 703 715 698 701 743 810 851 850 836 862 876 880 878 863 858 877 860 856 842 870 892 900 912 843 807 797 789 745 715 724 711 697 720 702 672 656 692 759 811 704 643 804 815 793 735 655 583 568 597 687 770 782 820 855 881 871 832 800 796 787 738 633 603 557 595 580 664 720 632 616 700 770 779 787 796 778 751
18 48 47 21 36 53 100 110 110 110 129 121 133 129 117 148 164 134 188 453 362 360 352 298 375 310 326 238 241 277 341 321 294 322 275 273 295 324 421 420 365 733 1125 845 837 770 722 722 757 953 890 1079 1107 1255 1370 1640 1747 1802 1730 1450 1334 1042 1012 1021 1000 1004 943 909 900 848 785 773 717 642 695 723 707 691 710 651 628 618 604 606 616 625 623 638 644 633 622 617 606 605 612 622 629 632 639 636 626 623 630 645 660 639 671 692 699 700 681 689 672 674 660 665 679 683 694 708 688 702 687 701 710 704 690 680 659 695 710 720 726 708 688 711 710 704 708 712 705 716 756 807 832 843 837 835 842 854 859 866 853 845 850 834 834 860 863 901 937 949 893 847 806 775 728 710 707 691 681 707 726 689 644 680 683 704 680 631 677 708 692 670 705 647 527 570 641 760 792 794 846 858 838 852 853 835 799 748 722 688 684 640 564 640 656 585 691 743 741 730 775 769 754 743
14 16 36 62 26 17 49 102 108 102 128 126 100 108 118 158 128 165 197 276 289 390 290 289 408 426 354 283 291 283 284 286 297 311 336 334 333 350 462 770 580 705 1096 1028 852 769 738 716 725 731 846 954 1344 1269 1303 1435 1615 1623 1581 1474 1313 1125 1018 953 973 993 940 890 855 895 871 803 739 656 686 711 671 672 702 658 653 628 603 588 596 598 610 623 634 630 621 612 606 603 619 621 626 626 626 623 618 615 628 637 645 632 647 651 666 686 681 669 671 658 646 650 663 670 692 703 689 679 680 702 694 682 682 683 661 692 710 712 732 745 721 725 731 721 729 739 742 771 835 850 839 829 824 835 830 838 850 868 875 865 840 836 868 869 882 901 928 939 900 842 798 778 737 737 751 708 723 684 678 684 652 644 623 675 669 680 590 584 596 592 652 637 544 527 615 746 790 770 800 836 797 824 847 827 796 754 758 756 719 679 596 593 587 619 687 723 654 738 745 756 749 737
41 11 15 43 63 13 15 32 91 105 120 128 99 101 113 132 121 152 165 176 485 316 279 325 439 470 348 349 377 386 299 287 328 398 466 452 403 464 536 628 1006 1468 1181 1227 888 850 780 724 719 761 827 1258 1276 1318 1454 1498 1494 1434 1420 1363 1290 1164 1050 985 934 906 911 859 831 860 865 839 725 654 669 682 652 676 690 652 646 631 607 592 586 590 617 630 617 625 624 617 597 603 617 613 620 624 617 613 610 612 622 639 639 626 631 636 647 666 664 659 653 664 642 636 659 669 670 663 673 674 675 679 691 689 686 677 670 682 700 714 730 739 730 735 741 741 748 737 750 764 781 821 844 839 827 814 813 825 838 842 851 854 836 822 850 870 875 900 894 874 861 836 826 829 787 781 728 719 736 744 675 633 631 598 567 586 599 754 667 619 576 555 620 631 537 523 634 729 748 764 799 807 765 814 792 826 818 792 772 719 699 695 684 599 531 629 680 695 612 739 708 735 762 742
44 16 12 45 66 27 15 18 26 43 87 102 83 99 102 111 120 140 142 165 430 198 187 257 463 572 534 465 554 504 416 387 483 448 538 522 508 626 896 580 776 1219 1279 1240 1040 927 818 735 752 827 941 1133 1223 1273 1423 1648 1728 1412 1452 1480 1341 1273 1178 1063 952 919 857 882 826 841 848 785 747 698 656 651 640 680 731 728 734 618 600 591 576 578 603 601 604 619 620 615 604 600 612 613 616 610 606 606 609 615 621 635 629 624 622 635 640 656 661 649 666 679 652 635 647 649 650 644 660 677 661 678 694 693 694 691 658 667 711 726 731 735 729 736 733 734 728 728 753 742 762 812 828 832 827 832 818 809 819 824 847 857 845 810 823 835 836 847 849 848 846 816 802 805 781 784 740 712 710 719 693 650 661 647 585 546 546 639 759 760 680 556 566 669 561 512 565 700 752 757 794 787 754 780 755 798 828 804 751 771 730 689 667 644 581 545 635 671 597 657 640 721 742 752
20 12 9 37 60 54 16 41 46 19 17 25 73 96 92 102 115 107 113 142 253 164 189 274 454 593 636 632 675 626 631 542 564 483 482 526 576 715 1037 1062 960 1026 1179 1308 1231 1055 895 743 729 897 1081 1265 1385 1274 1263 1250 1365 1286 1359 1356 1365 1323 1290 1185 989 892 836 813 815 848 807 766 772 710 633 614 655 742 1003 1118 799 635 621 606 590 567 587 578 597 597 602 601 601 584 605 610 618 609 599 603 612 617 618 621 621 626 624 636 645 642 647 638 655 671 658 629 622 629 642 664 667 678 663 680 692 685 675 695 681 656 707 715 718 722 710 708 710 704 699 714 729 737 764 793 815 811 808 821 834 823 791 818 846 842 837 815 810 806 815 813 818 832 825 813 796 777 770 759 715 722 726 689 673 690 720 710 597 595 548 548 616 710 709 601 537 597 566 504 594 680 750 746 767 754 749 720 756 774 804 793 778 781 757 732 694 650 597 590 566 634 609 616 616 707 731 732
29 12 12 20 41 78 27 28 50 23 20 23 43 47 62 108 113 98 109 134 219 165 244 412 545 660 750 801 792 741 892 704 485 456 531 636 716 736 1097 1415 1305 1466 1364 1609 1671 1279 990 778 663 638 711 1013 1144 738 718 827 865 1061 1260 1178 1105 1091 1071 1045 1012 889 821 802 816 807 759 737 713 654 611 616 634 804 1141 1079 668 656 633 591 584 571 567 566 573 572 573 567 570 585 612 617 615 611 603 606 609 613 618 619 610 624 629 640 636 630 628 639 635 639 649 634 614 625 658 667 651 653 657 673 693 692 683 666 652 682 707 700 697 715 721 727 735 718 718 717 710 728 759 759 784 813 796 798 810 782 736 806 814 809 809 799 805 787 787 794 804 814 819 800 786 777 736 723 700 738 754 709 715 707 748 691 592 568 571 544 559 570 592 527 527 526 548 504 528 610 733 731 712 724 770 705 748 737 787 762 779 773 755 738 688 680 673 626 573 572 601 550 649 674 687 702
48 13 11 14 17 41 30 26 41 20 20 25 51 40 27 53 68 89 104 121 135 139 243 421 610 783 941 1046 998 922 1054 766 631 520 390 418 523 925 966 1187 1528 1315 1437 1858 2085 1543 1027 802 636 579 633 854 799 615 552 588 512 864 1167 1122 1000 974 945 931 865 800 750 750 738 735 702 731 706 659 596 606 639 626 749 709 561 594 580 589 554 582 556 545 544 550 563 585 586 605 601 613 608 610 605 601 605 616 613 619 613 618 622 628 626 624 620 630 625 643 639 631 634 616 631 639 632 649 654 667 678 697 685 654 682 702 694 695 719 726 735 740 741 732 735 735 718 722 738 755 786 806 769 767 784 708 743 775 746 759 795 806 819 769 792 768 783 802 817 801 778 778 755 702 684 712 725 753 756 775 787 736 666 671 650 599 541 514 512 507 503 505 500 517 545 673 692 698 735 692 726 691 727 724 726 722 759 733 751 747 734 692 672 659 643 569 534 600 638 622 621 672
62 44 11 11 12 12 16 20 42 17 27 43 56 41 20 23 45 83 89 103 101 140 235 378 587 809 1003 1171 1207 1204 1255 935 627 484 331 305 374 602 648 941 1266 1175 1243 1372 1549 1263 953 719 602 477 465 584 681 660 502 443 423 835 1007 1010 911 892 907 896 823 770 763 722 677 662 709 725 655 623 593 611 648 648 529 507 507 497 497 522 530 572 554 550 559 557 567 590 596 603 610 610 602 599 597 603 619 612 605 608 613 611 620 626 613 611 619 616 629 627 601 610 606 598 599 600 614 633 668 655 669 688 661 652 676 697 684 696 715 732 731 743 753 749 745 750 738 737 748 779 788 788 739 752 712 658 730 736 715 757 786 828 816 762 750 753 745 767 789 769 741 749 745 723 715 678 690 717 791 814 814 797 745 656 592 578 551 597 622 576 564 627 561 495 508 576 644 645 678 697 689 671 687 714 699 750 761 737 706 722 741 690 687 703 639 622 554 576 603 563 614 620
53 42 16 9 9 10 11 16 18 32 55 48 53 45 23 18 36 55 41 52 64 116 189 307 478 639 644 591 759 1349 1186 876 707 645 508 313 390 534 819 1027 941 987 1016 972 1000 869 857 797 526 452 358 374 463 545 465 414 425 734 485 744 947 938 890 845 814 795 794 712 644 653 654 662 636 631 578 604 639 696 556 506 478 494 474 475 494 515 544 580 591 598 606 611 613 631 621 604 592 593 606 607 605 601 605 603 608 614 617 615 603 617 606 601 612 595 609 614 619 631 631 635 609 608 627 642 652 659 635 652 695 673 700 686 700 714 728 747 764 785 790 767 759 741 774 772 777 750 696 721 665 673 702 715 718 775 813 821 773 771 758 734 729 748 761 751 721 725 736 746 716 698 663 686 738 794 790 794 746 662 662 663 565 677 694 657 652 637 608 570 493 527 592 609 642 645 695 690 662 686 685 722 767 756 724 681 685 694 661 685 669 678 623 541 555 623 612 596
52 47 50 23 8 7 6 7 12 40 42 39 45 30 16 18 26 42 33 32 34 124 122 257 389 272 353 410 793 1215 1156 944 819 597 455 299 396 444 652 750 728 969 835 735 745 698 1056 1070 629 642 499 378 320 534 429 395 468 368 416 739 866 842 764 918 842 791 753 714 675 699 680 647 623 604 562 567 584 633 616 510 478 464 471 464 460 563 586 594 630 637 650 619 626 652 624 612 595 603 606 594 595 597 604 612 612 622 624 616 601 593 598 602 599 619 630 657 665 668 665 657 636 633 652 644 623 642 665 685 707 689 685 710 699 713 720 739 770 811 813 766 744 725 753 731 698 703 682 668 643 662 648 673 759 765 761 750 752 766 761 747 720 741 732 749 723 703 706 722 734 727 681 646 692 758 742 788 761 710 713 671 587 647 697 680 670 620 595 536 506 485 547 584 640 605 655 671 663 653 692 728 728 725 738 712 668 670 623 678 705 661 626 572 553 563 582 635
46 46 47 32 15 6 4 8 7 16 26 31 40 24 15 25 29 31 26 25 22 42 69 201 212 230 229 372 788 1120 999 838 672 527 384 277 360 388 647 543 829 1031 690 582 587 571 572 582 617 577 527 572 420 523 411 315 338 302 277 343 644 696 520 766 790 813 732 742 742 742 721 667 647 598 556 536 536 588 608 490 476 464 472 458 457 522 636 609 597 602 614 634 657 651 621 602 592 596 602 620 623 626 623 631 636 641 641 618 597 623 631 635 630 654 666 657 695 664 633 624 657 681 678 678 660 665 691 700 696 688 695 689 701 719 726 735 760 763 782 761 722 707 723 707 680 672 685 666 645 641 642 663 711 764 745 728 736 746 741 740 718 719 728 754 734 703 690 700 709 695 699 661 663 698 721 747 761 753 708 673 607 663 662 730 673 702 644 563 580 511 499 551 607 595 595 631 679 634 691 712 685 711 710 680 642 649 599 668 687 661 624 594 536 593 622 647
43 41 42 32 18 22 10 4 11 12 18 25 20 10 12 23 42 23 14 19 30 62 42 94 175 292 320 628 851 863 841 672 578 497 427 273 274 272 391 540 1192 1131 490 518 531 457 494 487 462 409 419 434 353 425 393 324 289 217 210 229 229 271 330 506 684 676 784 780 792 767 698 681 666 654 549 551 528 501 477 471 461 477 472 448 464 497 604 612 598 606 640 666 655 634 631 598 617 621 617 630 634 644 643 640 647 644 634 596 617 628 627 655 635 628 634 643 661 637 623 639 684 709 687 687 674 656 681 695 692 702 708 695 700 725 735 747 752 755 754 758 721 687 690 710 695 665 663 660 650 637 642 661 681 734 744 725 724 721 712 709 705 695 726 721 720 711 709 694 676 673 668 668 633 653 680 699 742 768 738 678 604 643 683 731 719 668 673 652 610 584 499 553 562 593 558 609 658 628 657 670 679 712 698 684 642 614 576 641 654 662 618 566 563 614 617 665
34 39 37 37 22 29 22 4 6 15 10 9 5 3 8 15 17 11 14 15 27 56 44 87 165 205 249 654 648 690 665 591 543 482 407 317 299 226 252 449 834 619 371 486 388 391 418 366 401 309 239 292 293 317 357 372 239 234 206 216 194 242 296 648 650 751 813 824 811 751 697 703 707 685 560 593 500 475 476 449 440 464 474 451 474 502 561 636 630 632 675 673 644 630 628 599 624 623 635 638 624 636 637 635 633 626 601 613 664 658 639 621 618 622 640 646 652 635 639 645 699 702 677 657 659 652 690 694 706 713 715 704 686 707 717 721 727 736 738 735 741 701 680 669 677 672 654 643 646 633 634 658 688 705 719 710 722 713 711 699 686 688 701 709 733 720 716 701 680 666 629 621 622 683 705 731 730 716 745 694 616 682 689 719 704 668 713 692 644 556 497 549 583 586 541 610 619 642 612 657 704 705 676 679 692 659 578 626 649 609 620 579 534 614 640 662
33 35 35 31 29 27 21 12 -9999 18 16 10 5 4 8 9 9 10 12 14 17 43 51 45 68 110 220 587 533 464 482 502 549 475 392 297 319 202 231 366 485 315 257 283 287 317 342 311 301 246 204 206 232 249 344 347 272 226 215 186 204 272 458 548 610 742 896 904 861 794 724 745 714 720 593 558 507 487 480 466 451 438 450 455 486 527 596 705 652 644 649 651 635 639 615 597 614 645 661 638 618 623 614 599 597 595 598 639 720 725 648 624 623 623 626 639 657 656 658 666 695 707 697 688 671 662 698 705 710 710 717 714 709 705 699 719 742 741 740 746 757 719 680 662 658 667 659 648 637 628 639 655 666 686 711 703 708 702 702 691 685 672 696 721 746 721 693 683 679 674 676 649 613 653 671 712 691 669 729 704 633 677 694 702 653 620 643 660 621 587 550 514 553 548 525 566 597 616 644 668 693 688 672 646 646 658 592 591 643 634 590 558 551 625 643 654
27 30 33 30 20 13 10 9 -9999 -9999 -9999 13 4 9 12 7 11 11 13 14 16 15 33 54 54 78 237 395 397 331 314 402 434 395 353 256 215 170 250 365 378 231 183 191 292 333 249 236 272 277 231 211 258 338 320 293 187 211 226 188 313 429 461 423 701 744 811 871 898 876 820 858 697 634 590 520 502 480 470 461 446 436 438 463 487 546 618 684 635 622 627 650 630 606 604 587 628 658 653 642 615 602 591 605 606 611 643 645 713 756 659 638 638 637 628 648 673 699 694 693 708 716 698 688 676 654 682 693 701 704 714 729 724 723 723 719 727 740 720 737 728 696 677 665 653 650 652 646 641 624 637 647 667 672 679 693 686 687 696 687 670 665 699 715 732 725 708 705 721 700 684 645 612 600 672 683 653 665 701 742 673 660 627 660 611 571 585 588 591 585 572 529 483 505 522 591 567 615 608 670 660 678 669 663 637 613 603 586 602 601 627 577 549 597 621 631
25 26 23 26 22 15 13 10 -9999 -9999 -9999 -9999 11 14 13 10 10 12 15 15 16 14 14 22 55 41 63 152 313 209 203 310 326 311 256 228 177 132 173 251 189 168 160 206 220 214 228 303 292 298 257 254 182 234 255 228 166 199 195 182 317 381 376 449 651 774 850 875 869 880 789 752 713 582 513 483 498 488 484 462 438 425 443 484 523 570 540 586 610 601 600 636 653 602 577 591 633 654 640 641 607 591 604 615 633 623 641 653 715 744 703 670 645 649 637 652 704 732 730 703 714 712 695 680 663 657 676 685 697 714 724 729 728 731 717 695 700 706 699 708 701 685 676 664 657 652 643 648 640 624 646 657 665 660 667 670 692 679 675 680 671 659 682 693 700 690 708 705 724 724 696 650 619 592 649 664 628 682 683 726 717 675 611 571 555 559 564 548 518 533 517 532 544 494 507 582 554 610 604 657 636 658 695 666 637 609 576 564 599 567 564 557 538 552 604 597
14 16 21 20 18 13 7 6 8 -9999 -9999 -9999 14 13 16 15 4 13 14 13 11 12 11 11 24 48 67 113 144 207 160 185 212 249 205 189 133 84 126 174 133 117 95 136 183 172 205 261 246 207 213 210 162 161 142 161 195 270 314 374 719 481 515 525 591 831 864 859 852 845 832 626 622 605 495 467 482 463 464 454 436 419 449 528 588 502 580 605 609 588 583 607 635 600 583 597 622 642 632 624 590 598 622 619 620 618 618 637 687 697 707 697 672 647 650 682 722 733 730 718 724 709 699 669 652 664 679 687 693 703 716 708 709 709 694 672 668 674 680 691 688 676 676 673 664 653 645 642 640 624 656 646 652 647 655 668 685 695 678 661 658 650 660 677 679 673 692 674 708 719 687 667 644 605 593 610 653 654 684 685 699 676 674 619 647 608 647 582 588 589 600 618 585 548 500 532 553 588 596 630 614 654 694 673 658 634 631 562 567 562 575 609 569 527 575 622
9 15 17 19 16 11 8 -9999 -9999 -9999 -9999 -9999 10 11 14 21 3 7 16 6 10 8 12 12 20 31 46 69 100 95 139 151 173 194 166 122 92 101 91 75 119 124 59 113 122 142 187 183 199 216 181 158 176 152 173 170 225 320 812 674 882 539 624 640 764 826 830 837 847 846 814 662 539 540 490 455 458 441 448 432 408 435 467 499 483 534 587 602 592 569 583 608 606 578 587 585 586 613 600 585 595 611 629 635 637 635 628 645 664 673 705 722 707 680 687 712 705 715 738 747 729 706 694 673 659 657 675 690 691 699 693 680 681 674 668 653 654 665 670 676 680 667 663 665 660 652 647 636 635 624 653 639 644 644 654 657 673 682 688 680 680 666 645 662 667 666 673 669 703 689 701 688 664 655 604 604 617 626 651 686 680 655 702 670 689 651 639 586 618 613 632 637 577 541 499 535 566 627 618 586 600 615 646 690 671 654 587 576 545 532 583 621 593 542 558 587
-9999 -9999 -9999 -9999 -9999 5 8 -9999 -9999 -9999 -9999 -9999 8 7 13 15 15 4 3 -9999 17 8 10 19 20 23 28 50 85 86 137 163 138 138 108 64 89 130 56 58 99 98 66 100 76 84 136 163 187 221 190 141 180 162 194 247 223 441 876 742 708 596 694 687 790 811 833 851 844 780 826 691 539 487 464 443 440 433 429 414 412 426 437 469 456 534 533 562 572 567 581 596 597 574 564 582 588 585 581 598 622 619 617 640 644 657 658 642 659 679 708 710 703 699 708 709 719 728 743 755 729 700 689 679 664 673 677 685 688 698 700 691 687 669 659 652 652 657 660 672 670 669 653 663 657 650 640 637 642 628 653 640 636 642 644 664 668 664 674 665 673 669 656 643 646 656 648 659 656 665 651 663 665 644 602 581 622 663 674 672 686 630 688 706 678 679 678 626 602 632 658 614 603 555 494 536 571 587 582 651 575 581 613 637 672 632 640 631 633 557 539 625 566 556 513 558
-9999 -9999 -9999 -9999 -9999 -9999 -9999 -9999 -9999 -9999 -9999 -9999 4 7 13 12 13 -9999 -9999 -9999 -9999 10 14 28 107 124 80 62 76 98 123 175 122 118 103 53 63 85 48 59 54 39 44 75 47 44 82 96 119 120 136 156 144 259 363 713 482 650 777 848 587 587 749 772 782 775 837 868 787 677 824 672 525 472 454 427 420 425 419 402 403 435 458 435 436 481 481 504 557 555 567 589 571 555 563 581 591 595 612 612 647 640 622 631 655 657 677 640 646 657 689 706 700 704 720 725 733 721 731 743 729 709 687 674 671 664 682 694 706 711 718 703 686 668 648 655 648 659 659 663 663 660 649 658 657 645 650 650 657 638 627 629 642 638 637 660 666 650 664 651 658 676 665 656 642 640 644 625 631 639 646 624 628 606 569 568 604 641 630 652 673 642 645 673 636 634 642 664 592 581 604 595 565 550 491 491 522 536 556 626 626 590 574 653 682 678 654 651 632 565 538 567 606 559 530 505
-9999 -9999 -9999 -9999 -9999 -9999 -9999 -9999 -9999 -9999 -9999 -9999 -9999 -9999 -9999 -9999 -9999 -9999 -9999 -9999 -9999 9 18 89 233 305 263 219 186 165 148 123 108 93 117 56 69 71 65 64 78 75 40 33 25 29 33 65 122 135 139 157 136 278 573 718 559 698 928 860 482 579 766 718 704 735 835 878 821 716 558 608 467 450 427 417 414 414 397 396 444 466 471 457 441 534 536 550 552 549 551 559 557 562 576 591 603 613 610 628 658 664 624 651 674 675 679 671 664 679 699 701 693 713 733 736 733 713 722 733 739 724 711 689 679 666 686 703 703 710 712 694 693 673 647 651 642 658 664 658 662 654 648 650 651 650 655 655 647 651 626 613 628 627 652 659 655 639 651 642 656 661 662 651 654 646 622 605 605 627 648 630 606 588 556 582 630 603 601 657 656 639 623 619 600 611 615 602 593 581 564 571 558 581 550 482 519 549 564 648 668 648 562 605 648 666 610 650 624 625 565 531 545 540 570 527
-9999 -9999 -9999 -9999 -9999 -9999 -9999 -9999 -9999 -9999 -9999 -9999 -9999 -9999 -9999 -9999 -9999 -9999 -9999 -9999 -9999 8 47 232 280 303 362 482 509 427 312 152 90 71 58 48 59 83 81 91 62 68 80 51 19 26 32 49 99 142 171 139 214 600 729 568 399 712 977 786 382 663 814 717 616 626 755 914 843 734 506 485 447 427 424 404 405 400 393 410 557 529 510 505 482 479 514 534 516 515 554 567 573 575 590 602 654 702 633 652 658 639 622 651 700 692 713 721 708 714 705 692 705 710 719 732 722 706 710 728 739 726 714 707 691 670 695 691 697 706 692 677 692 670 667 663 645 651 660 650 653 643 651 643 643 656 649 657 648 646 638 614 620 631 660 672 651 627 650 629 641 644 648 639 642 650 637 615 598 619 626 625 598 587 563 558 587 579 621 655 628 605 618 594 570 566 593 597 568 575 578 562 588 595 538 506 474 535 587 642 619 657 569 638 651 620 564 638 674 623 612 605 558 565 525 539
-9999 -9999 -9999 -9999 -9999 -9999 -9999 -9999 -9999 -9999 -9999 -9999 -9999 -9999 -9999 -9999 -9999 -9999 -9999 -9999 -9999 9 99 253 305 412 630 816 936 1021 725 321 111 60 46 44 58 69 81 87 55 39 68 39 18 36 60 68 101 123 147 128 177 463 620 422 375 853 792 753 396 807 833 828 700 618 628 901 755 682 551 436 418 420 405 398 398 390 398 437 522 614 587 549 499 483 495 460 486 527 552 575 582 594 605 636 687 617 635 655 661 637 624 648 680 693 735 736 724 715 705 694 698 716 725 722 702 708 709 719 724 719 711 720 698 678 693 678 685 694 689 672 679 667 667 676 660 640 641 634 641 644 649 656 648 650 646 632 648 661 650 623 622 625 650 661 638 628 639 622 631 643 629 625 648 639 649 636 601 590 606 619 593 580 565 544 568 556 610 627 609 593 608 591 569 563 603 593 560 542 588 601 582 543 519 505 468 499 531 584 570 634 580 609 629 612 569 605 636 603 657 629 633 574 563 516
-9999 -9999 -9999 -9999 -9999 -9999 -9999 -9999 -9999 -9999 -9999 -9999 -9999 -9999 -9999 -9999 -9999 -9999 -9999 -9999 -9999 -9999 125 209 377 558 823 1194 1507 1807 1272 600 185 55 38 42 43 55 73 84 76 36 67 41 18 61 69 57 98 108 119 103 217 611 558 241 635 921 698 701 337 878 834 860 800 671 587 705 672 625 561 427 395 392 391 388 392 393 417 458 539 594 596 606 545 472 523 498 492 533 555 575 592 603 608 690 618 614 651 681 685 675 631 650 661 692 740 755 735 708 708 691 705 719 725 708 698 703 710 717 719 713 710 705 692 679 687 687 663 685 695 664 667 669 664 671 664 658 636 622 631 637 636 646 655 664 659 653 638 650 655 643 635 613 625 647 632 618 628 616 623 625 614 619 622 620 633 633 609 584 588 610 608 598 585 556 538 549 608 620 578 609 632 636 612 576 552 554 563 551 563 593 553 541 530 521 487 475 519 527 532 589 622 562 567 561 574 598 592 591 625 641 645 600 613 547
-9999 -9999 -9999 -9999 -9999 -9999 -9999 -9999 -9999 -9999 -9999 -9999 -9999 -9999 -9999 -9999 -9999 -9999 -9999 -9999 -9999 -9999 53 128 264 590 1013 1774 2544 2565 1616 670 221 64 41 37 31 42 67 69 55 26 54 17 30 42 43 55 97 113 117 97 366 539 430 325 809 747 610 575 276 801 812 637 737 659 525 587 596 536 543 455 389 373 373 381 391 430 433 485 551 553 579 610 523 458 477 508 508 529 552 584 600 591 611 601 610 636 690 724 699 660 634 659 702 713 746 769 763 718 705 694 702 706 714 701 692 695 704 708 707 699 706 690 687 688 708 702 682 660 660 653 645 645 653 651 642 638 629 617 620 621 622 632 640 647 653 658 655 640 636 642 641 640 622 636 635 627 623 612 610 613 606 619 607 609 628 618 609 595 584 614 623 616 597 575 521 540 597 584 580 601 610 577 572 559 549 559 562 548 542 565 569 536 499 509 493 472 493 480 495 541 601 637 580 573 539 524 527 545 582 653 642 656 600 587
-9999 -9999 -9999 -9999 -9999 -9999 -9999 -9999 -9999 -9999 -9999 -9999 -9999 -9999 -9999 -9999 -9999 -9999 -9999 -9999 -9999 -9999 -9999 23 181 775 1455 2706 3345 2368 1147 511 305 105 31 32 26 49 73 60 45 23 29 28 29 29 46 63 76 118 111 92 271 300 249 473 699 514 351 315 289 539 596 503 663 583 442 422 523 463 501 445 419 376 360 391 431 466 464 488 497 516 559 620 507 487 514 539 519 538 570 626 608 597 612 622 638 663 691 752 727 664 647 667 701 710 738 748 746 723 706 696 694 715 725 700 684 692 699 698 694 694 700 699 701 703 718 707 686 652 656 654 649 651 647 656 654 652 648 645 647 641 629 617 633 646 647 642 635 643 639 633 619 614 636 612 604 607 623 612 598 593 590 592 592 617 631 617 606 591 582 604 619 592 563 545 524 526 575 550 571 605 620 602 581 564 562 557 560 567 538 542 562 521 514 498 482 470 506 505 547 580 616 672 655 587 629 571 563 508 533 615 562 597 625 638
-9999 -9999 -9999 -9999 -9999 -9999 -9999 -9999 -9999 -9999 -9999 -9999 -9999 -9999 -9999 -9999 -9999 -9999 -9999 -9999 -9999 -9999 -9999 23 268 1140 2123 3112 2837 1546 827 512 387 125 25 18 19 41 61 49 60 38 37 58 51 49 49 56 65 113 96 96 255 308 165 637 370 333 300 241 437 509 492 473 609 541 407 369 405 442 439 400 374 351 368 403 454 512 506 529 523 555 581 563 536 542 577 573 534 560 611 636 615 607 614 612 643 669 737 782 724 676 665 684 709 710 746 761 731 706 706 691 692 698 705 703 691 692 702 693 691 703 708 712 714 704 702 706 674 671 669 664 667 684 687 687 674 672 668 655 669 669 670 654 633 631 628 621 629 627 619 626 624 628 616 633 637 613 618 594 615 620 611 613 591 605 617 610 606 594 580 602 620 598 578 554 532 509 538 545 578 620 625 630 601 553 534 536 543 539 510 532 538 506 485 483 454 491 497 502 535 555 565 645 682 663 619 630 653 573 495 515 594 650 673 644
-9999 -9999 -9999 -9999 -9999 -9999 -9999 -9999 -9999 -9999 -9999 -9999 -9999 -9999 -9999 -9999 -9999 -9999 -9999 -9999 -9999 -9999 -9999 58 414 1270 2031 2450 1700 982 658 490 287 69 30 16 16 26 31 27 24 16 28 50 52 57 37 32 50 83 76 114 258 175 296 275 368 287 254 218 444 407 393 492 448 466 388 350 344 362 363 349 390 402 410 478 520 493 537 557 545 567 587 588 567 577 598 577 566 586 622 643 627 622 633 618 640 682 743 739 736 713 700 693 700 729 724 724 724 711 704 697 686 689 699 688 686 689 689 696 701 706 719 717 721 709 699 696 687 697 680 680 692 701 731 714 692 684 673 665 688 702 680 659 651 631 640 652 654 655 646 627 632 639 620 602 606 598 600 614 637 635 625 622 604 593 597 590 586 600 579 599 618 604 596 570 540 511 529 561 590 654 632 633 621 572 538 544 543 517 513 521 513 513 479 461 456 484 487 509 540 556 578 565 660 689 643 678 672 609 568 475 584 645 653 618
-9999 -9999 -9999 -9999 -9999 -9999 -9999 -9999 -9999 -9999 -9999 -9999 -9999 -9999 -9999 -9999 -9999 -9999 -9999 -9999 -9999 -9999 -9999 32 234 712 1223 1459 943 570 457 320 109 25 16 8 12 18 10 9 12 12 34 33 37 41 33 34 42 68 64 111 172 171 286 211 293 261 176 238 303 306 330 389 346 440 358 322 323 351 367 396 406 462 477 484 558 513 528 546 549 557 603 625 604 599 607 603 599 612 646 654 635 631 654 640 637 660 711 727 721 718 716 704 699 703 711 734 736 715 697 693 685 691 691 682 685 704 702 698 696 700 705 711 725 705 701 700 693 712 690 691 704 730 772 743 717 692 667 687 721 696 677 651 644 643 658 654 651 656 642 632 645 638 633 623 613 612 629 629 642 651 641 631 606 587 580 578 579 576 574 580 603 612 594 558 529 511 506 537 562 610 593 631 634 577 522 508 513 503 511 520 511 494 468 450 467 512 521 506 493 527 597 644 678 680 686 682 669 661 591 497 502 624 602 611
-9999 -9999 -9999 -9999 -9999 -9999 -9999 -9999 -9999 -9999 -9999 -9999 -9999 -9999 -9999 -9999 -9999 -9999 -9999 -9999 -9999 -9999 -9999 -9999 49 169 613 734 450 267 199 95 31 9 9 3 8 13 15 9 6 20 33 22 22 45 48 36 51 66 70 141 209 284 254 288 265 207 173 215 291 263 284 317 315 376 346 359 367 375 389 434 404 415 502 502 576 551 576 576 581 600 647 700 639 616 631 607 614 637 653 664 647 660 688 663 635 666 719 728 713 699 693 689 704 710 730 728 743 710 697 690 684 686 681 675 680 691 699 696 689 688 693 701 721 701 699 696 703 709 698 715 739 764 759 758 758 732 693 735 734 694 667 649 656 655 648 636 633 634 624 645 653 648 647 640 628 635 644 638 651 654 649 629 605 614 604 601 598 595 598 570 563 574 566 543 511 488 483 518 539 552 595 662 648 609 541 513 490 506 511 513 520 494 469 441 444 475 542 575 548 501 535 575 571 636 670 658 656 660 598 553 471 542 548 626
-9999 -9999 -9999 -9999 -9999 -9999 -9999 -9999 -9999 -9999 -9999 -9999 -9999 -9999 -9999 -9999 -9999 -9999 -9999 -9999 -9999 -9999 -9999 -9999 -9999 -9999 88 163 99 147 110 29 10 12 7 1 7 12 13 4 11 14 28 31 19 44 59 62 82 83 93 176 166 309 244 273 229 163 259 257 241 262 332 374 332 341 382 386 367 394 458 543 481 437 484 555 596 601 604 578 616 634 689 737 659 636 648 632 633 657 678 690 674 713 705 664 644 677 722 715 712 705 687 694 695 702 727 712 709 701 688 681 677 668 672 674 674 678 682 686 684 690 685 691 690 692 694 698 703 711 720 739 749 743 740 733 763 761 755 763 721 685 659 660 648 641 638 658 650 639 632 635 656 654 651 642 631 644 650 650 662 645 637 625 629 635 613 620 602 587 590 588 556 535 525 506 487 500 492 489 505 534 591 666 626 584 557 521 508 490 507 499 493 494 472 461 485 510 518 571 587 578 528 567 607 630 673 615 584 601 619 544 505 465 531 617
-9999 -9999 -9999 -9999 -9999 -9999 -9999 -9999 -9999 -9999 -9999 -9999 -9999 -9999 -9999 -9999 -9999 -9999 -9999 -9999 -9999 -9999 -9999 -9999 -9999 -9999 -9999 -9999 -9999 124 85 12 12 13 10 9 12 -9999 -9999 16 11 8 14 24 21 35 60 73 91 88 109 146 148 224 219 233 193 175 252 245 273 305 275 350 345 344 428 471 388 382 394 419 481 467 602 647 658 692 640 591 661 812 782 759 693 660 663 641 655 685 718 751 727 727 746 704 665 688 719 705 710 702 687 699 689 705 722 715 693 695 677 666 659 673 682 690 690 694 700 698 703 708 696 690 682 689 688 692 699 720 718 738 729 718 715 698 714 733 745 745 734 685 672 666 671 656 654 664 656 641 637 649 648 666 658 649 637 653 685 663 664 650 648 646 648 648 645 636 619 614 617 586 576 554 552 524 518 515 529 531 502 487 603 679 595 551 540 497 501 485 495 499 490 490 445 457 482 501 517 562 588 641 584 623 659 684 674 653 645 557 550 583 568 508 463 498
-9999 -9999 -9999 -9999 -9999 -9999 -9999 -9999 -9999 -9999 -9999 -9999 -9999 -9999 -9999 -9999 -9999 -9999 -9999 -9999 -9999 -9999 -9999 -9999 -9999 -9999 -9999 -9999 -9999 70 -9999 13 13 18 16 -9999 -9999 -9999 -9999 24 12 12 12 16 29 37 62 72 86 73 109 96 169 170 248 193 142 228 272 201 258 276 243 268 334 363 590 381 382 387 396 405 398 466 588 688 699 703 644 623 817 913 795 887 742 680 677 658 723 734 725 790 733 721 848 818 753 721 707 698 705 704 696 690 681 699 706 697 693 667 659 663 678 686 686 690 699 714 712 708 713 715 708 701 690 694 693 695 697 707 713 724 705 698 687 694 685 690 693 712 716 680 696 678 664 651 665 662 656 639 631 656 651 659 663 650 644 641 680 677 671 652 658 662 667 657 663 651 622 635 624 602 577 573 577 552 547 530 554 596 604 529 514 671 581 543 512 485 495 482 483 486 490 475 450 487 480 468 478 504 580 645 604 606 671 675 655 633 649 603 600 631 557 592 522 466
-9999 -9999 -9999 -9999 -9999 -9999 -9999 -9999 -9999 -9999 -9999 -9999 -9999 -9999 -9999 -9999 -9999 -9999 -9999 -9999 -9999 -9999 -9999 -9999 -9999 -9999 -9999 -9999 -9999 -9999 -9999 -9999 9 13 11 9 -9999 -9999 -9999 -9999 18 12 10 23 35 46 58 79 66 51 95 87 118 130 188 147 181 261 222 183 200 253 238 229 274 260 337 273 376 393 433 477 469 535 607 661 703 684 686 681 806 798 769 816 753 710 688 687 739 732 734 746 719 704 723 727 717 704 700 689 711 709 713 692 679 689 688 668 665 676 697 686 696 694 702 703 703 713 718 715 720 738 720 701 694 701 698 701 705 709 710 717 713 694 680 671 667 668 662 688 696 685 691 680 663 661 661 664 647 646 648 645 670 661 661 659 653 650 678 677 672 664 668 674 684 684 678 651 637 646 639 619 593 596 614 563 572 564 583 660 693 604 496 686 556 552 495 489 479 476 482 471 476 444 472 509 516 486 486 495 518 547 623 634 652 674 638 587 609 639 619 629 611 637 607 557
-9999 -9999 -9999 -9999 -9999 -9999 -9999 -9999 -9999 -9999 -9999 -9999 -9999 -9999 -9999 -9999 -9999 -9999 -9999 -9999 -9999 -9999 -9999 -9999 -9999 -9999 -9999 -9999 -9999 -9999 -9999 -9999 -9999 -9999 -9999 -9999 -9999 -9999 19 15 19 12 11 20 27 43 45 71 44 49 66 62 78 109 116 160 210 201 140 149 166 247 223 214 220 218 250 278 342 402 412 525 558 631 649 679 708 706 717 733 820 788 748 742 731 724 699 685 726 714 718 723 711 705 702 706 700 704 691 705 712 691 697 672 660 658 657 670 696 681 693 692 702 702 703 703 706 712 714 716 724 742 727 713 705 702 708 708 710 714 719 711 694 686 693 687 670 679 667 661 669 679 679 679 669 672 665 655 656 656 659 649 672 667 671 665 650 656 667 667 666 672 663 664 675 680 683 664 653 651 638 617 613 626 618 594 582 592 598 644 686 574 492 676 590 559 514 508 470 479 550 513 468 446 502 512 538 511 511 520 583 563 593 629 644 670 656 616 563 605 641 646 643 636 597 587
-9999 -9999 -9999 -9999 -9999 -9999 -9999 -9999 -9999 -9999 -9999 -9999 -9999 -9999 -9999 -9999 -9999 -9999 -9999 -9999 -9999 -9999 -9999 -9999 -9999 -9999 -9999 -9999 -9999 -9999 -9999 -9999 -9999 -9999 -9999 -9999 -9999 12 21 18 13 13 13 13 22 38 41 47 19 29 35 53 91 126 141 151 164 127 150 145 161 266 261 207 215 219 232 266 280 378 452 536 591 651 703 704 715 728 776 794 793 761 774 706 707 711 721 707 715 708 718 724 712 698 698 709 703 686 695 698 669 663 681 662 661 674 677 685 703 693 682 688 690 688 689 691 694 701 701 705 714 726 739 734 730 721 727 725 732 742 740 726 712 712 716 702 688 686 680 665 656 655 666 677 678 678 664 666 666 669 658 653 669 674 677 671 660 669 677 674 671 661 650 654 652 666 679 679 668 651 640 630 634 622 609 603 599 604 595 584 661 527 475 616 552 519 469 480 472 546 656 649 491 450 529 528 546 540 533 563 583 635 631 601 638 653 657 641 549 602 639 651 643 635 622 613
-9999 -9999 -9999 -9999 -9999 -9999 -9999 -9999 -9999 -9999 -9999 -9999 -9999 -9999 -9999 -9999 50 29 25 26 53 61 -9999 -9999 -9999 -9999 -9999 -9999 -9999 -9999 -9999 -9999 -9999 -9999 -9999 -9999 -9999 16 10 16 10 15 16 22 32 35 37 44 16 25 42 79 116 165 126 133 118 119 159 180 193 211 224 196 213 222 227 236 303 413 418 466 606 640 666 692 720 709 714 721 734 737 725 701 698 706 714 703 702 699 715 720 712 692 692 706 689 675 687 663 663 657 656 653 679 683 690 687 698 705 696 685 687 687 688 686 692 690 701 703 718 741 736 731 725 741 734 743 747 760 755 745 743 785 768 759 728 730 718 722 683 672 651 676 698 696 686 693 686 672 664 669 672 681 680 670 677 676 681 687 692 679 654 644 664 686 728 688 658 650 659 654 642 632 627 615 611 611 641 593 546 489 490 541 461 463 477 457 475 571 646 586 459 479 557 557 555 590 548 617 598 643 645 586 619 610 627 625 609 555 639 644 647 638 621 640
-9999 -9999 -9999 -9999 -9999 -9999 -9999 -9999 -9999 -9999 -9999 -9999 -9999 -9999 -9999 34 59 94 113 181 328 222 48 -9999 -9999 -9999 -9999 -9999 -9999 -9999 -9999 -9999 -9999 -9999 -9999 -9999 -9999 -9999 15 11 11 12 15 23 26 44 35 46 39 29 52 93 133 165 121 118 108 117 137 179 228 203 189 197 208 210 216 229 359 539 437 453 498 607 660 692 718 699 703 720 724 719 732 716 698 692 698 699 692 704 713 722 716 699 690 671 674 680 663 678 672 673 661 671 680 683 685 694 702 710 707 694 691 694 697 686 693 698 707 708 711 723 720 718 720 729 737 759 759 780 761 750 753 793 796 767 769 788 748 707 687 672 663 672 693 704 711 713 704 695 707 706 705 705 698 688 661 670 678 689 697 679 665 648 678 680 718 697 645 625 638 638 651 646 640 623 647 641 659 618 526 516 588 616 494 451 447 450 469 483 553 543 447 453 534 565 587 616 616 578 588 598 638 629 585 583 624 590 564 544 621 620 603 626 615 575
-9999 -9999 -9999 -9999 -9999 -9999 -9999 -9999 -9999 -9999 -9999 -9999 -9999 -9999 47 96 188 296 389 702 787 505 115 -9999 -9999 -9999 -9999 -9999 -9999 -9999 -9999 -9999 -9999 -9999 -9999 -9999 -9999 -9999 -9999 15 12 18 23 30 25 39 33 29 30 31 63 103 112 108 121 112 99 97 105 135 176 184 195 203 202 213 221 307 537 527 530 604 612 679 683 690 688 692 715 734 711 719 724 716 694 681 693 689 680 696 702 702 706 693 688 672 676 691 681 683 692 688 678 682 684 688 693 694 709 709 710 702 699 703 706 693 699 703 713 716 719 715 715 706 718 726 728 749 755 762 745 737 762 790 788 776 778 769 765 746 681 667 664 663 654 680 692 678 681 694 726 695 688 712 678 688 656 678 656 655 665 676 683 655 655 664 661 667 625 603 612 620 630 647 639 686 683 700 697 614 562 567 640 655 551 480 451 441 446 459 538 593 461 435 488 502 587 578 599 627 641 628 589 604 606 566 593 606 597 540 565 594 564 590 597 568
-9999 -9999 -9999 -9999 -9999 -9999 -9999 -9999 -9999 -9999 -9999 -9999 -9999 -9999 49 218 493 713 1221 1452 1174 517 105 -9999 -9999 -9999 -9999 -9999 -9999 -9999 -9999 -9999 -9999 -9999 -9999 -9999 -9999 -9999 -9999 17 19 21 20 23 34 35 30 22 33 30 64 90 98 121 109 108 94 123 136 141 164 179 272 224 207 217 241 337 536 568 636 651 686 709 688 675 681 697 727 713 702 706 714 713 686 678 682 691 676 686 690 702 696 691 676 673 684 696 700 697 692 693 685 689 693 692 701 689 701 702 700 710 713 724 708 705 708 711 719 722 726 715 696 704 714 716 717 741 739 741 734 737 784 772 757 743 751 747 746 713 689 669 663 649 639 671 718 650 661 685 694 672 658 671 653 658 637 642 631 642 645 656 682 669 614 646 629 624 599 593 611 608 624 645 706 720 715 714 690 626 621 613 603 640 540 461 465 475 441 491 605 571 513 428 470 531 516 557 584 618 614 594 602 578 536 542 532 537 529 516 502 513 510 521 522 524
-9999 -9999 -9999 -9999 -9999 -9999 -9999 -9999 -9999 -9999 -9999 -9999 -9999 -9999 75 371 900 1666 2272 1733 851 234 -9999 -9999 -9999 -9999 -9999 -9999 -9999 -9999 -9999 -9999 -9999 -9999 -9999 -9999 -9999 -9999 -9999 11 20 17 24 29 23 22 29 32 32 30 54 73 85 96 88 98 96 129 207 195 185 208 248 229 199 223 325 352 481 560 622 633 664 680 686 670 674 687 698 689 691 699 704 704 696 677 679 683 677 677 683 687 675 685 673 685 697 707 703 709 715 702 691 693 699 691 691 683 678 681 687 702 718 709 704 715 710 709 707 708 711 706 689 706 710 699 696 709 724 739 724 738 744 740 737 734 735 741 745 726 685 662 658 663 674 653 646 636 653 672 665 653 653 640 641 635 620 619 625 630 627 626 638 637 595 600 623 612 579 590 593 606 619 619 735 722 712 719 686 666 652 669 643 600 483 504 530 510 486 487 465 504 532 430 461 489 507 561 600 631 625 633 635 592 592 612 584 572 586 589 585 562 531 524 505 502
-9999 -9999 -9999 -9999 -9999 -9999 -9999 -9999 -9999 -9999 -9999 -9999 -9999 -9999 73 358 1144 1973 2094 1008 349 65 -9999 -9999 -9999 -9999 -9999 -9999 -9999 -9999 -9999 -9999 -9999 -9999 -9999 -9999 -9999 -9999 -9999 14 21 21 22 31 31 36 41 51 30 29 47 71 92 84 88 88 99 107 123 147 168 191 219 203 209 219 280 333 421 536 617 632 647 657 654 667 667 690 685 684 681 692 691 696 690 674 661 663 665 673 664 670 658 669 667 680 696 697 706 709 712 697 680 677 690 679 679 677 673 665 682 691 719 704 695 714 692 706 696 695 690 694 683 696 701 691 686 695 705 716 713 727 725 718 730 730 730 749 750 710 685 669 687 680 664 669 671 631 649 662 652 645 645 628 627 623 612 608 613 626 615 625 624 622 585 577 604 609 573 559 582 598 597 610 685 755 692 674 686 690 684 673 649 586 487 524 545 519 559 617 509 437 512 431 453 470 527 551 595 624 640 644 636 593 626 630 603 616 623 612 606 589 586 577 563 567
-9999 -9999 -9999 -9999 -9999 -9999 -9999 -9999 -9999 -9999 -9999 -9999 -9999 26 76 346 1062 1411 948 467 174 -9999 -9999 -9999 -9999 -9999 -9999 -9999 -9999 -9999 -9999 -9999 -9999 -9999 -9999 -9999 -9999 -9999 -9999 15 27 28 25 32 34 42 50 56 36 25 53 83 137 83 77 95 107 124 115 137 155 167 171 202 286 322 381 347 503 567 627 636 664 651 655 657 659 681 685 673 678 687 682 667 662 669 684 671 662 665 666 662 668 665 673 693 701 690 702 711 702 682 673 673 674 667 671 671 678 658 682 686 706 702 686 705 689 687 694 693 683 683 690 702 698 688 699 709 715 722 699 722 711 705 713 716 727 745 754 714 684 662 678 677 659 643 649 632 667 656 648 640 639 626 621 614 609 598 606 609 614 626 601 582 570 559 571 593 566 541 583 575 593 652 688 691 683 663 669 693 666 641 623 622 572 587 604 646 652 667 619 499 427 410 475 547 558 601 606 590 623 632 584 578 605 639 629 599 608 572 561 591 606 570 509 542
-9999 -9999 -9999 -9999 -9999 -9999 -9999 -9999 -9999 -9999 -9999 65 81 45 109 504 906 849 439 219 59 -9999 -9999 -9999 -9999 -9999 -9999 -9999 -9999 -9999 -9999 -9999 -9999 -9999 -9999 -9999 -9999 -9999 -9999 -9999 -9999 21 24 31 37 40 48 47 31 26 62 80 117 84 87 97 124 141 144 133 143 146 158 183 281 450 508 402 503 576 656 644 671 671 685 679 664 675 679 671 681 682 666 662 670 670 677 682 666 663 673 672 667 681 683 704 694 694 695 701 686 675 666 664 662 660 668 684 667 659 666 684 692 688 680 697 698 679 683 690 680 678 699 697 686 693 701 712 708 708 703 718 706 718 730 720 719 744 748 732 734 696 664 653 644 635 661 629 670 666 645 635 618 617 598 609 609 581 606 596 613 601 591 581 568 541 578 586 564 547 565 567 620 648 668 676 644 637 657 637 645 619 629 603 607 657 644 664 666 641 646 553 484 439 425 568 604 572 552 590 607 607 579 563 605 640 640 573 527 530 515 534 573 535 492 528
-9999 -9999 -9999 -9999 -9999 -9999 -9999 -9999 -9999 -9999 135 303 362 351 348 608 761 443 182 64 -9999 -9999 -9999 -9999 -9999 -9999 -9999 -9999 -9999 -9999 -9999 -9999 -9999 -9999 -9999 -9999 -9999 -9999 -9999 -9999 -9999 -9999 23 25 32 39 49 69 46 29 57 80 101 91 92 101 125 153 168 153 161 148 173 236 340 506 497 476 508 600 650 668 704 706 696 704 694 671 658 665 674 677 659 673 682 676 679 686 673 673 688 676 680 691 696 699 674 679 679 682 671 672 663 658 655 653 667 678 664 656 648 666 682 674 676 688 686 677 693 694 680 683 698 692 678 679 686 688 689 690 694 694 698 714 716 705 705 740 731 744 763 731 671 667 662 639 621 627 657 675 657 636 626 620 599 589 593 575 594 588 587 593 580 562 558 559 593 582 568 553 556 561 584 626 625 662 673 671 625 593 622 634 625 649 640 642 641 626 642 642 642 595 503 491 421 555 581 550 529 567 593 582 555 557 605 622 633 606 588 568 498 486 569 553 478 467
